ply
format ascii 1.0
element vertex 1117
property float x
property float y
property float z
property uchar red
property uchar green
property uchar blue
property int label
end_header
-15.189329 92.716660 7.971540 209 56 46 4
-74.983154 24.585556 5.689806 209 56 46 4
-84.156555 -3.467215 4.816000 209 56 46 4
28.002207 -82.386742 12.697241 209 56 46 4
26.711512 -65.485794 4.791871 209 56 46 4
77.888992 -72.902176 25.642313 209 56 46 4
73.700867 -66.110840 15.849957 209 56 46 4
-77.731133 -28.373667 0.835603 209 56 46 4
86.743385 -71.042061 23.924902 209 56 46 4
-8.900598 87.494743 12.499737 209 56 46 4
-67.642197 -23.731813 25.179518 209 56 46 4
30.513512 -85.239532 27.056732 209 56 46 4
44.525036 -38.522644 15.959756 209 56 46 4
-68.424782 -45.633007 18.780602 209 56 46 4
-63.285488 -92.945686 24.205212 209 56 46 4
24.390154 -91.308945 6.001616 209 56 46 4
-74.351135 -44.163090 7.849724 209 56 46 4
-32.305065 105.917160 4.537743 209 56 46 4
-104.707092 74.567009 15.113642 209 56 46 4
-80.188744 -31.448788 21.292696 209 56 46 4
82.835396 -38.182838 14.464076 209 56 46 4
52.211487 -32.769470 8.436696 209 56 46 4
-79.193062 -4.067629 22.079945 209 56 46 4
-91.133270 31.825180 4.984191 209 56 46 4
55.633690 -43.414963 19.943384 209 56 46 4
-16.626411 91.183220 6.169645 209 56 46 4
-83.635773 -1.340167 16.392536 209 56 46 4
-102.172661 76.758682 18.961363 209 56 46 4
60.694031 -47.743885 13.470948 209 56 46 4
21.906380 -85.102356 30.158575 209 56 46 4
54.018658 -41.899742 20.117386 209 56 46 4
83.076065 68.307228 2.587935 209 56 46 4
-76.588165 -8.148323 7.550195 209 56 46 4
-112.776329 83.905823 5.220836 209 56 46 4
-82.458290 -1.292484 6.733748 209 56 46 4
13.169027 -97.586037 18.843544 209 56 46 4
-76.394302 -2.802207 17.904768 209 56 46 4
67.429077 -68.259209 15.816967 209 56 46 4
-76.816628 22.743092 5.488387 209 56 46 4
-86.517815 -12.833968 9.131096 209 56 46 4
-13.422603 89.807259 13.406927 209 56 46 4
50.689571 -30.941359 6.055228 209 56 46 4
-84.286255 35.605194 11.108680 209 56 46 4
21.964088 -81.621414 14.500660 209 56 46 4
52.484619 -42.736233 20.012280 209 56 46 4
22.082897 -81.193359 8.188318 209 56 46 4
-29.529709 94.366638 5.652190 209 56 46 4
47.539600 -30.795666 16.047243 209 56 46 4
60.423195 -42.528076 15.668888 209 56 46 4
-55.475742 -89.138039 2.959379 209 56 46 4
29.827637 -88.143463 22.919847 209 56 46 4
-28.588268 107.344437 2.938015 209 56 46 4
50.654240 -36.247116 19.824120 209 56 46 4
-84.206680 -3.686430 18.421719 209 56 46 4
94.077621 -47.588158 31.954994 209 56 46 4
22.595837 -87.792229 30.151386 209 56 46 4
21.942371 -90.709473 11.680123 209 56 46 4
48.688118 -40.501518 19.576332 209 56 46 4
117.221001 37.245880 8.959996 209 56 46 4
-25.334465 108.128731 4.963600 209 56 46 4
100.003815 73.560669 -1.253827 209 56 46 4
25.888811 -81.896561 29.836081 209 56 46 4
87.157501 11.942614 14.742692 209 56 46 4
-28.132425 88.581299 10.234616 209 56 46 4
-83.676132 -1.570599 12.640690 209 56 46 4
121.716728 32.723782 5.626894 209 56 46 4
-9.188348 79.480232 5.225187 209 56 46 4
-22.132631 89.816971 5.486559 209 56 46 4
-84.246269 29.742710 11.194371 209 56 46 4
44.153019 -38.079430 17.548243 209 56 46 4
-13.036230 32.824333 3.356573 209 56 46 4
23.223173 -91.009666 12.055912 209 56 46 4
15.415228 -45.372528 7.714599 209 56 46 4
-61.846241 -34.678692 30.575525 209 56 46 4
-78.868416 33.478371 2.973772 209 56 46 4
-68.858742 -93.924545 18.432154 209 56 46 4
52.271019 -36.787170 19.765331 209 56 46 4
-73.223259 -45.413940 29.953642 209 56 46 4
-83.073967 -12.705459 22.071045 209 56 46 4
21.545630 -86.633835 30.140940 209 56 46 4
-57.250515 -85.168587 24.931963 209 56 46 4
-25.402924 89.058571 2.644771 209 56 46 4
-76.984421 -38.437477 8.341447 209 56 46 4
42.649734 -36.294689 8.320994 209 56 46 4
21.784645 -82.360435 3.377993 209 56 46 4
-12.818636 27.756849 3.984657 209 56 46 4
48.344730 -43.050995 10.165941 209 56 46 4
-61.121040 -92.349220 6.577896 209 56 46 4
51.927696 -34.863453 19.157627 209 56 46 4
93.230988 -1.135997 19.587381 209 56 46 4
9.982410 -113.204048 2.514597 209 56 46 4
-71.515938 -47.058601 12.261227 209 56 46 4
-85.195084 29.317101 11.200816 209 56 46 4
-114.681908 82.984077 15.758251 209 56 46 4
-28.318386 89.424011 5.196301 209 56 46 4
-10.040143 89.750244 12.769196 209 56 46 4
-78.799400 33.420906 -4.226979 209 56 46 4
-19.348841 98.891182 10.246692 209 56 46 4
-81.257156 35.303200 11.161992 209 56 46 4
50.825092 -35.531509 19.642399 209 56 46 4
119.770126 29.555519 12.128305 209 56 46 4
-22.447697 108.825882 4.322274 209 56 46 4
-84.794220 -14.247774 21.821842 209 56 46 4
-62.095505 -92.699936 23.088644 209 56 46 4
99.463882 60.092216 4.584913 209 56 46 4
-77.354332 -37.660519 11.254227 209 56 46 4
-80.734390 -16.516119 21.846872 209 56 46 4
85.844917 -85.871170 8.695411 209 56 46 4
110.875954 20.755531 14.300302 209 56 46 4
-25.042837 108.204666 0.774000 209 56 46 4
-64.197205 -29.104851 5.659133 209 56 46 4
-31.115473 106.716713 1.026754 209 56 46 4
-87.445244 36.368942 10.905301 209 56 46 4
10.138894 -113.434227 24.433836 209 56 46 4
21.700338 -82.820198 20.696356 209 56 46 4
-28.756166 107.319443 8.306221 209 56 46 4
-79.806053 -13.986922 21.716793 209 56 46 4
21.057957 -111.070389 10.552318 209 56 46 4
101.987785 24.388767 5.123024 209 56 46 4
-77.095139 22.509363 0.649803 209 56 46 4
55.472618 -51.561485 10.220996 209 56 46 4
18.568443 -65.088882 2.959261 209 56 46 4
-87.718483 40.992081 10.258433 209 56 46 4
-63.439899 -83.251144 25.484779 209 56 46 4
11.214967 -98.004593 12.751920 209 56 46 4
82.829651 0.799097 20.779270 209 56 46 4
28.519239 -92.254066 8.207026 209 56 46 4
75.829750 -80.226028 25.633720 209 56 46 4
58.738583 -49.375854 15.594371 209 56 46 4
107.555244 29.982021 9.983439 209 56 46 4
87.232597 -35.249649 33.061569 209 56 46 4
-62.666798 -39.814056 30.107861 209 56 46 4
-16.010628 92.558174 0.016230 209 56 46 4
111.916809 21.700165 3.275281 209 56 46 4
62.953983 -45.868187 17.128206 209 56 46 4
86.248802 -5.014909 20.771952 209 56 46 4
-86.987122 -15.217227 6.581453 209 56 46 4
60.685150 -47.757050 15.907599 209 56 46 4
49.860218 -29.936960 17.443682 209 56 46 4
-111.753807 75.587761 18.867165 209 56 46 4
-65.543983 -26.176479 13.635863 209 56 46 4
-79.314568 26.350245 10.836654 209 56 46 4
-80.177742 28.922630 11.067126 209 56 46 4
103.226921 63.449886 0.333851 209 56 46 4
58.147865 -49.907326 16.506777 209 56 46 4
-12.583056 25.703279 4.358620 209 56 46 4
22.268368 -110.801544 17.931873 209 56 46 4
-0.586224 14.881468 1.364040 209 56 46 4
53.208672 -44.166542 19.872202 209 56 46 4
51.929050 -37.503918 19.947132 209 56 46 4
-18.826267 96.942093 10.228494 209 56 46 4
-79.010834 -17.216722 8.941341 209 56 46 4
93.027916 63.570915 6.602443 209 56 46 4
-101.165405 84.819084 15.210601 209 56 46 4
120.320747 34.106857 11.393974 209 56 46 4
57.541561 -50.382168 5.356699 209 56 46 4
-59.236179 -81.006996 23.381830 209 56 46 4
113.305466 35.695496 1.943979 209 56 46 4
28.071180 -92.185028 4.353478 209 56 46 4
103.932419 24.196953 14.890241 209 56 46 4
-21.088993 90.894516 10.229320 209 56 46 4
-100.694626 84.845375 13.907005 209 56 46 4
-64.422691 -28.595751 22.976709 209 56 46 4
22.870110 -81.148064 26.361860 209 56 46 4
-81.458351 29.109098 11.108781 209 56 46 4
26.868429 -82.534462 30.130693 209 56 46 4
-81.836678 22.422113 2.970772 209 56 46 4
-15.884743 83.834396 12.378181 209 56 46 4
75.091637 -76.479034 25.655523 209 56 46 4
-58.266590 -81.360184 8.827065 209 56 46 4
-94.302681 34.992989 6.796051 209 56 46 4
48.451126 -43.179874 15.154344 209 56 46 4
80.760490 -0.130062 20.145819 209 56 46 4
-7.277658 84.567253 12.106327 209 56 46 4
-18.834141 90.638039 7.028862 209 56 46 4
-7.001652 81.701706 12.135732 209 56 46 4
108.396355 30.820900 -1.356401 209 56 46 4
-24.439692 89.676682 10.227445 209 56 46 4
14.725590 -97.226440 17.314196 209 56 46 4
-58.048862 -88.546547 24.554554 209 56 46 4
58.565559 -25.202921 7.359569 209 56 46 4
-28.601929 93.957024 10.245901 209 56 46 4
94.483627 -0.366110 17.253143 209 56 46 4
43.628902 -9.613487 11.420106 209 56 46 4
62.171394 -46.509151 11.090342 209 56 46 4
-25.226677 93.687019 10.251354 209 56 46 4
107.326439 28.231016 14.690731 209 56 46 4
-73.491478 26.171404 9.576096 209 56 46 4
-78.664764 20.929432 6.804543 209 56 46 4
-80.759384 21.281784 0.931006 209 56 46 4
-82.800049 28.963276 11.203118 209 56 46 4
-29.374380 93.854927 9.525111 209 56 46 4
-67.198174 -45.076866 24.191410 209 56 46 4
-84.904358 -15.738752 1.293558 209 56 46 4
-6.739023 92.889671 9.323188 209 56 46 4
-84.609352 -5.272776 16.185551 209 56 46 4
-29.338243 107.163574 9.636009 209 56 46 4
28.954027 -82.628792 26.129200 209 56 46 4
58.027954 -46.785175 19.247967 209 56 46 4
-83.384499 -1.070928 14.747722 209 56 46 4
-68.243698 -45.557102 2.599429 209 56 46 4
76.938377 5.476578 14.270967 209 56 46 4
-99.093048 77.818588 8.495901 209 56 46 4
30.889700 -83.770073 5.875347 209 56 46 4
49.385807 -44.285389 7.769704 209 56 46 4
-16.568554 92.507706 7.431675 209 56 46 4
97.666954 74.879311 1.181157 209 56 46 4
-18.339800 102.126396 0.960404 209 56 46 4
60.797401 -47.639580 5.624055 209 56 46 4
-76.047859 30.537554 10.922956 209 56 46 4
-29.084440 92.587158 -0.136214 209 56 46 4
-75.829124 -40.955208 21.569517 209 56 46 4
-71.785995 -25.647709 8.582685 209 56 46 4
10.672662 -101.508987 26.827291 209 56 46 4
42.541634 -36.145756 6.639030 209 56 46 4
-92.041283 34.842926 10.579028 209 56 46 4
-84.480591 37.966419 10.995584 209 56 46 4
9.617455 -111.614624 8.574034 209 56 46 4
-78.214760 31.763630 11.106148 209 56 46 4
-92.580017 38.117466 -2.723005 209 56 46 4
118.248878 36.187885 12.029021 209 56 46 4
51.970886 -32.455921 13.814036 209 56 46 4
-103.531822 74.651505 -0.694533 209 56 46 4
60.778973 -42.966705 9.610815 209 56 46 4
-6.633222 92.049202 6.248725 209 56 46 4
19.991270 -90.017555 16.422338 209 56 46 4
-23.970997 108.473999 8.908829 209 56 46 4
2.655622 15.279891 5.274828 209 56 46 4
-84.261581 27.854586 11.170507 209 56 46 4
-14.053418 81.777153 12.876534 209 56 46 4
20.735903 -111.154839 26.533953 209 56 46 4
-65.786163 -88.945038 24.849293 209 56 46 4
-85.553802 -9.143393 8.445027 209 56 46 4
115.832626 18.881716 8.331857 209 56 46 4
116.091461 25.873537 -1.302486 209 56 46 4
-78.327591 -4.049591 21.955475 209 56 46 4
23.431940 -91.065712 4.913319 209 56 46 4
2.560769 16.046871 2.979627 209 56 46 4
-11.831992 18.394993 5.031311 209 56 46 4
1.317298 28.097641 4.750110 209 56 46 4
0.485460 15.005825 5.810521 209 56 46 4
-81.299271 35.938961 -0.511290 209 56 46 4
47.078808 -41.547199 13.839495 209 56 46 4
-26.175911 104.648773 10.248002 209 56 46 4
-26.222477 107.927704 6.884416 209 56 46 4
48.280437 -32.955429 18.866282 209 56 46 4
-113.853691 83.814621 4.825058 209 56 46 4
-77.501625 -35.405296 30.557278 209 56 46 4
-83.790771 24.459957 11.044037 209 56 46 4
-94.084755 36.647640 -4.748850 209 56 46 4
57.098129 -38.557953 5.455903 209 56 46 4
113.519424 26.196978 15.119689 209 56 46 4
-99.629341 84.424408 6.970284 209 56 46 4
-104.692406 74.832375 18.149776 209 56 46 4
14.963123 -105.826004 26.800741 209 56 46 4
-98.998184 76.526688 8.064049 209 56 46 4
41.617115 -21.159531 7.923847 209 56 46 4
45.151333 -32.814068 5.352244 209 56 46 4
-91.337212 37.893105 10.169018 209 56 46 4
51.059738 -46.280472 8.181483 209 56 46 4
-31.067904 100.793976 8.463063 209 56 46 4
-5.394081 82.702110 -1.502907 209 56 46 4
-16.278500 93.682243 1.279079 209 56 46 4
21.531607 -83.523979 26.969574 209 56 46 4
-71.766365 -85.833794 17.303802 209 56 46 4
102.564301 24.962730 -0.591667 209 56 46 4
-57.310287 -84.050072 -0.688890 209 56 46 4
-21.935608 108.949654 2.430927 209 56 46 4
-77.165260 -10.438969 7.950980 209 56 46 4
-81.978439 -9.817407 22.086454 209 56 46 4
-21.750057 108.993553 1.013487 209 56 46 4
-26.808475 107.761276 5.087894 209 56 46 4
-31.328600 101.837051 4.447949 209 56 46 4
51.783314 -41.136364 20.081818 209 56 46 4
-7.814493 84.645920 12.256596 209 56 46 4
109.683601 19.522457 7.100819 209 56 46 4
-31.684917 106.586967 8.775478 209 56 46 4
-77.893188 -6.064075 21.740480 209 56 46 4
-76.462250 -27.758242 6.918922 209 56 46 4
27.078295 -90.023239 30.147039 209 56 46 4
-55.395752 -89.346397 22.440754 209 56 46 4
-56.435459 -86.500145 9.675766 209 56 46 4
59.075569 -47.035324 18.895405 209 56 46 4
25.313183 -81.751152 25.415815 209 56 46 4
-72.765396 26.821798 -0.197139 209 56 46 4
87.865921 -76.238419 2.914147 209 56 46 4
-83.533310 -8.121068 21.776806 209 56 46 4
-64.216843 -42.133354 29.769419 209 56 46 4
-29.267445 107.177856 0.210718 209 56 46 4
106.103958 28.511913 9.005987 209 56 46 4
-68.430893 -44.803764 29.533707 209 56 46 4
-81.711243 -16.554718 17.512703 209 56 46 4
-22.933748 97.739914 10.205030 209 56 46 4
107.645706 30.050062 -0.461580 209 56 46 4
91.897820 3.979327 12.010377 209 56 46 4
-21.582979 98.935905 10.265165 209 56 46 4
-32.229366 105.612640 7.994036 209 56 46 4
53.856659 -34.692116 10.190439 209 56 46 4
108.815353 21.712311 15.186731 209 56 46 4
21.924221 -81.941124 25.233751 209 56 46 4
82.162506 -86.687225 13.289547 209 56 46 4
-30.113989 105.898148 10.240113 209 56 46 4
-85.960777 28.047094 11.180223 209 56 46 4
-93.710167 37.025055 0.200872 209 56 46 4
58.218456 -24.103184 15.464698 209 56 46 4
50.585415 -34.421482 19.302063 209 56 46 4
-69.838120 -32.319714 30.578068 209 56 46 4
25.266813 -81.743637 5.738678 209 56 46 4
-28.224960 89.074547 -0.891274 209 56 46 4
-25.800325 107.940178 10.255160 209 56 46 4
-64.354286 -28.758556 23.124283 209 56 46 4
92.932701 -1.321347 10.018083 209 56 46 4
-5.905152 86.648521 1.815789 209 56 46 4
25.656815 -85.292992 30.147381 209 56 46 4
44.654625 -33.220997 13.724592 209 56 46 4
30.573465 -82.992554 5.496840 209 56 46 4
-81.605309 36.239895 6.156296 209 56 46 4
78.955421 -64.959282 7.595790 209 56 46 4
60.848274 -47.582550 7.368047 209 56 46 4
29.962667 -82.841011 6.258863 209 56 46 4
42.645878 -24.745869 8.217435 209 56 46 4
88.896996 9.021995 8.816145 209 56 46 4
28.082672 -82.418480 4.268950 209 56 46 4
-7.980572 86.336349 12.233828 209 56 46 4
-25.659622 108.063904 8.131160 209 56 46 4
-81.264526 35.483227 11.227650 209 56 46 4
-29.558611 94.578720 6.705087 209 56 46 4
7.318429 -100.936508 4.408668 209 56 46 4
54.739166 -39.307728 19.766836 209 56 46 4
-103.610924 77.173752 19.059301 209 56 46 4
-71.230385 -87.320625 10.951428 209 56 46 4
61.328735 -47.217957 16.290920 209 56 46 4
59.166626 -49.018509 12.897260 209 56 46 4
74.316032 -65.978432 22.518312 209 56 46 4
57.117588 -43.383766 19.651026 209 56 46 4
101.997452 24.426538 -1.593471 209 56 46 4
24.949787 -91.411865 7.183751 209 56 46 4
-19.431120 91.523750 8.578664 209 56 46 4
55.524418 -51.576744 12.357665 209 56 46 4
50.238632 -30.366989 8.874157 209 56 46 4
52.402962 -37.319256 19.828548 209 56 46 4
30.800024 -84.088676 2.754063 209 56 46 4
73.240997 -74.753304 25.614452 209 56 46 4
85.719368 60.112709 4.172629 209 56 46 4
-86.046379 28.236946 11.187004 209 56 46 4
13.504226 -97.498505 16.133595 209 56 46 4
26.158705 -89.196472 30.163475 209 56 46 4
-76.108109 27.484472 10.573777 209 56 46 4
86.020050 -67.667633 9.529299 209 56 46 4
70.284164 -81.422607 2.630767 209 56 46 4
-62.839764 -32.070641 18.663130 209 56 46 4
-71.464317 -25.513596 25.229177 209 56 46 4
88.950058 56.682732 2.729698 209 56 46 4
54.727005 -38.603798 19.620413 209 56 46 4
26.657404 -82.073952 26.573370 209 56 46 4
48.422726 -30.085152 15.118361 209 56 46 4
16.518717 -96.827766 10.198020 209 56 46 4
102.136787 -41.585365 6.033746 209 56 46 4
86.901230 7.019152 20.772907 209 56 46 4
115.487961 6.125519 3.047943 209 56 46 4
-16.930367 96.369339 1.311337 209 56 46 4
-17.872715 100.289551 6.980909 209 56 46 4
59.249268 -48.945740 16.812941 209 56 46 4
-62.669739 -32.428810 18.803772 209 56 46 4
-29.649527 103.381599 10.241094 209 56 46 4
-20.181196 109.379448 3.957044 209 56 46 4
-110.262978 79.532623 19.252178 209 56 46 4
78.246590 -87.528816 23.535891 209 56 46 4
89.546471 -84.177567 22.242388 209 56 46 4
103.162971 23.064581 0.058873 209 56 46 4
30.436081 -85.653877 14.371651 209 56 46 4
23.310999 -81.272003 18.785467 209 56 46 4
96.110214 -31.891415 24.060368 209 56 46 4
-87.693855 28.319923 1.435187 209 56 46 4
-16.991966 96.671082 6.501294 209 56 46 4
109.478668 20.861010 14.701998 209 56 46 4
-65.609856 -87.133446 25.059940 209 56 46 4
-12.221472 80.184143 13.396142 209 56 46 4
-89.959267 31.892927 11.016562 209 56 46 4
-79.115532 -30.150764 29.644478 209 56 46 4
31.053192 -83.104034 29.108351 209 56 46 4
-79.352722 -3.784900 22.048742 209 56 46 4
-76.489784 -7.762902 18.217793 209 56 46 4
79.581070 -67.343391 25.665092 209 56 46 4
20.439096 -88.011192 12.740051 209 56 46 4
55.058468 -51.076550 5.795884 209 56 46 4
-91.704704 38.972622 1.181215 209 56 46 4
-99.192039 78.880165 7.422190 209 56 46 4
-18.690725 87.380989 11.610530 209 56 46 4
-60.493210 -84.654076 25.144600 209 56 46 4
-99.329300 80.670174 14.660024 209 56 46 4
-81.765785 -16.090826 22.013083 209 56 46 4
31.004536 -83.268005 22.428020 209 56 46 4
58.172535 -49.878273 13.780246 209 56 46 4
-90.529724 40.179874 0.557409 209 56 46 4
47.118286 -32.618088 18.623390 209 56 46 4
83.479607 -38.376778 33.024548 209 56 46 4
120.715416 33.719784 12.390560 209 56 46 4
-84.309059 -4.087202 13.609149 209 56 46 4
20.677685 -87.063339 5.552468 209 56 46 4
-76.838097 -28.973171 29.549896 209 56 46 4
-10.745187 13.786069 1.788649 209 56 46 4
19.999388 -89.835464 5.037934 209 56 46 4
-74.736252 29.326185 -1.155869 209 56 46 4
-71.583794 -33.225895 30.567324 209 56 46 4
26.577574 -86.563248 30.161312 209 56 46 4
56.212402 -45.030613 19.741100 209 56 46 4
55.569874 -46.122509 19.575047 209 56 46 4
-82.144966 -1.362930 -0.043297 209 56 46 4
56.291698 -17.493763 15.149461 209 56 46 4
-16.276814 93.614494 8.233563 209 56 46 4
-26.577095 102.297256 10.230980 209 56 46 4
-84.869057 39.549633 5.272908 209 56 46 4
54.702984 -11.940731 8.478498 209 56 46 4
48.829876 -39.667027 19.790266 209 56 46 4
-87.068176 -15.116522 7.271276 209 56 46 4
-61.711178 -85.543510 25.077168 209 56 46 4
22.554125 -83.960640 30.163221 209 56 46 4
-66.509392 -44.775627 28.100290 209 56 46 4
-64.574966 -28.319689 13.418067 209 56 46 4
21.643908 -82.884735 29.530161 209 56 46 4
-80.813217 -29.788885 26.927528 209 56 46 4
-98.961006 75.818703 5.044988 209 56 46 4
53.610180 -44.328014 19.878292 209 56 46 4
43.390972 -37.179546 16.057035 209 56 46 4
10.979496 -113.251129 11.594644 209 56 46 4
-110.694626 84.057083 6.594132 209 56 46 4
-19.165598 90.431915 11.627756 209 56 46 4
59.343613 -48.878506 13.826387 209 56 46 4
-65.633812 -86.427574 25.187990 209 56 46 4
59.300083 -44.522648 18.846186 209 56 46 4
86.705551 -70.928635 6.711348 209 56 46 4
100.893532 70.769135 1.156339 209 56 46 4
59.452557 -41.377094 17.381296 209 56 46 4
-65.676498 -83.348076 0.954593 209 56 46 4
-17.769432 79.100983 8.153063 209 56 46 4
-85.139252 -9.530041 21.204081 209 56 46 4
-9.483548 83.483986 12.851752 209 56 46 4
-79.587379 -9.164142 21.974222 209 56 46 4
-15.461236 87.807579 12.674481 209 56 46 4
-84.575668 -5.150663 0.436921 209 56 46 4
98.937080 -44.091908 7.525054 209 56 46 4
-28.631355 105.648277 10.244489 209 56 46 4
24.626894 -91.348381 3.293357 209 56 46 4
93.234131 1.052591 20.159588 209 56 46 4
119.425667 29.229494 -1.691554 209 56 46 4
50.086960 -41.234165 19.810980 209 56 46 4
-108.130257 74.905495 18.410654 209 56 46 4
-85.120064 -12.423522 21.563644 209 56 46 4
7.888241 -103.478455 26.550632 209 56 46 4
-61.283821 -35.497097 8.182452 209 56 46 4
-28.035275 88.423172 -0.049692 209 56 46 4
61.126770 -47.380157 8.874893 209 56 46 4
-72.717773 -38.422722 30.671816 209 56 46 4
21.870897 -82.008476 9.757057 209 56 46 4
58.687443 -47.235020 18.953897 209 56 46 4
81.541161 11.391435 21.389177 209 56 46 4
123.295158 11.763187 5.761669 209 56 46 4
-90.600227 31.790363 10.995707 209 56 46 4
56.356716 -41.814682 19.761576 209 56 46 4
-76.187271 -33.159847 30.400982 209 56 46 4
-17.139120 92.443779 3.643095 209 56 46 4
83.804619 -82.558907 25.659805 209 56 46 4
-9.128860 92.160912 12.399046 209 56 46 4
-109.590935 82.503052 18.852306 209 56 46 4
-92.213257 38.485832 -0.026107 209 56 46 4
-68.574387 -84.393791 5.734879 209 56 46 4
2.566477 16.023388 4.796016 209 56 46 4
24.771641 -85.437675 30.163437 209 56 46 4
29.004797 -91.774300 8.567199 209 56 46 4
-21.755465 89.960999 0.183819 209 56 46 4
16.707481 -109.217453 26.812145 209 56 46 4
67.481140 -67.452927 4.791006 209 56 46 4
20.045858 -109.927353 26.820379 209 56 46 4
-25.354462 108.116295 9.488104 209 56 46 4
91.697060 4.385864 6.408057 209 56 46 4
-89.840164 30.518623 5.803408 209 56 46 4
-68.690033 -45.775993 9.847128 209 56 46 4
-15.754844 79.972099 12.251822 209 56 46 4
-73.885857 25.709349 7.250127 209 56 46 4
55.725178 -39.467312 19.501339 209 56 46 4
-9.282818 13.966214 2.338449 209 56 46 4
-17.352489 96.157265 10.244050 209 56 46 4
83.879456 65.710297 -1.220941 209 56 46 4
-93.870163 34.567818 8.010101 209 56 46 4
-83.942451 -2.721899 -0.537733 209 56 46 4
51.229424 -7.407869 14.224461 209 56 46 4
-17.747757 90.891396 3.818679 209 56 46 4
-99.251404 79.689491 7.477881 209 56 46 4
-107.643448 74.343872 8.121195 209 56 46 4
24.254253 -56.939804 11.434855 209 56 46 4
45.212517 -39.296410 11.996296 209 56 46 4
-99.020226 74.993217 14.261113 209 56 46 4
103.432251 22.840910 1.914021 209 56 46 4
61.274860 -43.530746 14.905298 209 56 46 4
-78.947807 -34.169327 25.971661 209 56 46 4
-65.639603 -43.623951 29.457888 209 56 46 4
-73.763710 -26.559429 19.669735 209 56 46 4
-8.643583 93.576218 3.467751 209 56 46 4
-62.085358 -42.756180 19.305248 209 56 46 4
54.857224 -42.093487 20.082159 209 56 46 4
-76.005219 29.823973 10.838759 209 56 46 4
28.802317 -92.345520 27.204866 209 56 46 4
67.908699 -70.467674 16.631350 209 56 46 4
99.242630 75.392410 2.306798 209 56 46 4
29.559603 -86.992889 30.152428 209 56 46 4
-78.840752 33.460861 -0.019545 209 56 46 4
-105.551422 84.462891 2.347819 209 56 46 4
-10.856325 18.714964 6.430803 209 56 46 4
-105.842674 80.276321 19.282314 209 56 46 4
54.838840 -35.896156 12.854452 209 56 46 4
-79.474632 28.830717 10.989238 209 56 46 4
-26.942907 107.730682 2.129788 209 56 46 4
58.264790 -39.971252 13.488466 209 56 46 4
59.068966 -40.891285 13.275204 209 56 46 4
25.622524 -91.594505 23.154659 209 56 46 4
86.627670 -85.711945 2.938475 209 56 46 4
41.914600 -10.115267 6.732463 209 56 46 4
-83.142242 -16.178858 19.073404 209 56 46 4
69.277138 -76.811981 4.142306 209 56 46 4
-83.149361 -6.330911 21.712217 209 56 46 4
57.312195 -48.305588 18.851631 209 56 46 4
-77.575157 -6.436582 21.618443 209 56 46 4
48.071098 -42.740513 17.142267 209 56 46 4
-5.061063 19.040758 7.113021 209 56 46 4
69.519737 -77.859718 22.115005 209 56 46 4
-57.878315 -82.441399 23.364027 209 56 46 4
30.339207 -82.959572 5.378240 209 56 46 4
-18.884302 90.836388 10.232041 209 56 46 4
-63.037693 -31.667147 23.682383 209 56 46 4
103.436157 22.799660 2.093796 209 56 46 4
51.712658 -32.128304 8.683557 209 56 46 4
-79.769150 -17.010777 -0.912948 209 56 46 4
10.875806 -98.065681 12.572845 209 56 46 4
83.782326 -67.966171 25.653597 209 56 46 4
99.818428 61.192726 5.655419 209 56 46 4
-82.816597 37.465233 6.024919 209 56 46 4
-18.998758 104.923073 3.211838 209 56 46 4
-27.574543 107.591362 8.542018 209 56 46 4
-83.095528 -8.590773 21.885651 209 56 46 4
-59.347973 -41.477413 28.089962 209 56 46 4
-75.461403 -28.026089 29.420507 209 56 46 4
-30.630991 106.668526 10.226019 209 56 46 4
-82.482719 -14.267045 22.089800 209 56 46 4
-17.133667 97.225456 9.966767 209 56 46 4
-111.615875 81.817612 19.024303 209 56 46 4
-19.144867 89.495132 -1.368506 209 56 46 4
-78.692085 -28.795187 14.330202 209 56 46 4
-0.939302 14.861881 1.037319 209 56 46 4
-71.719162 -85.970726 3.783432 209 56 46 4
-114.604599 82.312675 6.251518 209 56 46 4
81.018547 -72.113510 25.660130 209 56 46 4
-59.110264 -91.606995 19.837212 209 56 46 4
45.357647 -9.092920 10.485856 209 56 46 4
-55.702427 -90.395485 21.379990 209 56 46 4
-92.332970 38.391304 -1.607248 209 56 46 4
50.964451 -37.105877 19.891781 209 56 46 4
55.157707 -44.274696 19.932554 209 56 46 4
-82.166016 -12.551722 22.139591 209 56 46 4
-71.707108 -86.016640 23.311794 209 56 46 4
50.365036 -41.980473 19.778875 209 56 46 4
-17.050985 78.461601 2.152248 209 56 46 4
51.543884 -46.883434 16.393648 209 56 46 4
-11.743824 79.176552 0.022247 209 56 46 4
60.071121 -45.164337 18.181231 209 56 46 4
-21.090755 90.085854 5.607797 209 56 46 4
-79.961189 -16.272627 21.610649 209 56 46 4
-62.678188 -92.900276 15.592206 209 56 46 4
72.285988 -66.432617 17.785576 209 56 46 4
-8.844533 83.309273 12.608277 209 56 46 4
84.628601 63.419266 3.576235 209 56 46 4
-59.421261 -82.634766 25.411495 209 56 46 4
-29.781593 95.497932 2.442601 209 56 46 4
21.406160 -84.053146 3.676514 209 56 46 4
-103.751495 81.770523 19.153744 209 56 46 4
85.397537 0.736723 21.367199 209 56 46 4
119.421700 35.045700 8.519451 209 56 46 4
91.133018 -2.368064 8.882009 209 56 46 4
52.603065 -48.142696 10.697557 209 56 46 4
20.835793 -61.188179 11.494427 209 56 46 4
29.210169 -90.837395 24.736799 209 56 46 4
113.351845 35.757248 11.614528 209 56 46 4
-85.717514 -9.779610 13.066805 209 56 46 4
84.739540 63.098339 1.787350 209 56 46 4
26.131142 -90.722420 30.144541 209 56 46 4
-28.328384 89.509804 7.991889 209 56 46 4
-19.093454 88.949310 3.515332 209 56 46 4
54.191715 -35.101063 8.860301 209 56 46 4
-61.147472 -89.698067 24.509754 209 56 46 4
-63.684353 -91.096497 24.450161 209 56 46 4
111.603676 33.403507 14.452674 209 56 46 4
25.115107 -82.283302 30.141422 209 56 46 4
-23.606958 89.479065 -0.819456 209 56 46 4
55.536064 -51.628822 14.585467 209 56 46 4
29.353725 -90.204155 8.340451 209 56 46 4
52.438248 -40.193218 20.183769 209 56 46 4
-28.486012 107.358498 5.297199 209 56 46 4
44.881348 -34.835285 18.170086 209 56 46 4
-68.908272 -93.736069 17.292761 209 56 46 4
-30.908604 100.234787 8.477349 209 56 46 4
-22.824738 89.663460 4.493763 209 56 46 4
104.187912 22.076845 6.598874 209 56 46 4
-67.552414 -83.991745 -0.690557 209 56 46 4
-88.696617 35.838161 10.833088 209 56 46 4
28.997583 -83.983231 30.151114 209 56 46 4
75.541885 7.784003 6.708586 209 56 46 4
-93.665497 34.370472 -3.440743 209 56 46 4
32.363117 -52.281570 2.193964 209 56 46 4
-19.282028 90.495270 9.787036 209 56 46 4
-28.261131 97.783699 10.234385 209 56 46 4
-28.682751 90.977669 3.500233 209 56 46 4
-94.583298 35.314503 4.859844 209 56 46 4
-78.156647 21.470690 0.377714 209 56 46 4
22.071337 -81.115669 5.450195 209 56 46 4
55.669323 -51.756481 6.251160 209 56 46 4
9.868861 -112.631111 15.140318 209 56 46 4
-99.435623 81.950150 -0.802439 209 56 46 4
-99.926811 74.956566 16.775288 209 56 46 4
-76.961235 22.650324 1.118568 209 56 46 4
-91.079552 31.981733 10.976971 209 56 46 4
-16.603157 91.170189 3.520391 209 56 46 4
54.282475 -14.545838 17.177269 209 56 46 4
-81.761635 36.420021 -4.265373 209 56 46 4
-91.799217 32.481873 -3.320126 209 56 46 4
-76.965317 -5.971880 21.419275 209 56 46 4
-101.552460 77.431252 19.092329 209 56 46 4
19.391438 -101.459274 26.828550 209 56 46 4
31.911589 -55.732483 2.174260 209 56 46 4
-17.825731 90.881149 0.353128 209 56 46 4
-8.702276 90.825462 12.309927 209 56 46 4
-99.461464 82.304161 16.901854 209 56 46 4
49.738258 -43.098412 19.223219 209 56 46 4
21.644279 -88.226547 30.154821 209 56 46 4
88.431267 -78.843719 8.750553 209 56 46 4
-75.210190 24.384117 3.910202 209 56 46 4
-107.009895 84.349274 14.238656 209 56 46 4
-103.828629 75.432037 18.510126 209 56 46 4
-84.984940 -6.771573 15.390345 209 56 46 4
-86.023933 39.047997 10.777220 209 56 46 4
22.654743 -86.053711 30.164087 209 56 46 4
9.250455 -109.957436 6.750368 209 56 46 4
121.611244 32.823738 12.669476 209 56 46 4
-86.797424 -15.252267 6.319911 209 56 46 4
75.341484 -85.815834 25.643282 209 56 46 4
30.007814 -87.435181 19.421949 209 56 46 4
30.056990 -82.876503 20.848761 209 56 46 4
78.654526 7.770593 20.796801 209 56 46 4
79.960762 7.219802 20.979311 209 56 46 4
-9.190654 86.270134 12.618662 209 56 46 4
-32.336166 106.427361 6.077593 209 56 46 4
-81.252388 33.747215 11.171455 209 56 46 4
25.422071 -49.944462 11.572883 209 56 46 4
23.000534 -88.643433 30.163588 209 56 46 4
-74.327370 25.247766 8.678200 209 56 46 4
-74.302536 28.852287 2.500207 209 56 46 4
-22.373632 96.117371 10.245104 209 56 46 4
-76.083771 -6.067208 12.789361 209 56 46 4
-16.816063 92.468102 0.694618 209 56 46 4
-29.387480 107.177277 -0.021890 209 56 46 4
-87.890968 34.052727 11.042025 209 56 46 4
-73.614571 -26.475798 6.794481 209 56 46 4
82.360268 6.012575 21.350521 209 56 46 4
-112.834686 73.925278 14.954129 209 56 46 4
-79.240761 33.839844 0.628835 209 56 46 4
110.644653 20.454994 1.883614 209 56 46 4
-73.054802 -47.045433 10.437260 209 56 46 4
76.806641 -86.071167 25.614836 209 56 46 4
10.858411 -53.964287 8.567611 209 56 46 4
-77.008286 -2.671931 21.759216 209 56 46 4
22.064590 -89.605705 30.181633 209 56 46 4
-104.441689 75.429512 18.573683 209 56 46 4
-68.012566 -38.739918 30.525196 209 56 46 4
-29.479237 100.892761 10.248501 209 56 46 4
-74.843056 -29.479561 29.979290 209 56 46 4
-77.810631 21.780029 5.735299 209 56 46 4
45.741112 -14.223966 17.141476 209 56 46 4
-16.674210 95.313011 8.785631 209 56 46 4
-89.018349 36.954952 10.697284 209 56 46 4
-80.852684 21.418610 -0.023124 209 56 46 4
49.259914 -29.346107 9.677890 209 56 46 4
-61.694916 -84.471756 25.259613 209 56 46 4
-114.373772 79.443443 10.103655 209 56 46 4
-84.800629 -6.023094 7.079700 209 56 46 4
75.509521 7.839575 6.927646 209 56 46 4
106.134323 20.142210 1.389114 209 56 46 4
-18.331633 90.750305 6.009991 209 56 46 4
-22.555571 89.744751 2.800194 209 56 46 4
-62.604572 -92.881355 15.621855 209 56 46 4
87.460358 69.945518 5.813476 209 56 46 4
84.377045 64.171791 -0.257953 209 56 46 4
-80.756424 -1.711434 -0.853785 209 56 46 4
-26.440218 107.877846 -0.515496 209 56 46 4
55.641403 -15.211446 13.802657 209 56 46 4
59.690079 -45.392483 18.663752 209 56 46 4
-65.541183 -44.272945 29.034636 209 56 46 4
-29.133686 107.213234 1.151676 209 56 46 4
68.553246 -73.482498 3.581916 209 56 46 4
-24.391630 97.333061 10.235410 209 56 46 4
81.527374 -2.205688 11.164549 209 56 46 4
-77.078651 -8.289180 21.133518 209 56 46 4
-68.328049 -26.951363 30.084612 209 56 46 4
55.195053 -36.344139 5.889347 209 56 46 4
-107.487381 81.857361 19.062012 209 56 46 4
53.927265 -34.798016 13.488435 209 56 46 4
70.443970 -82.229233 20.241068 209 56 46 4
-78.736763 -15.418176 21.032970 209 56 46 4
-19.392662 91.500893 -0.876010 209 56 46 4
55.039421 -36.056557 6.447683 209 56 46 4
47.274853 -31.022533 9.320348 209 56 46 4
-29.060465 92.571030 1.888039 209 56 46 4
-112.557022 82.752968 18.687716 209 56 46 4
57.502384 -43.631260 19.571621 209 56 46 4
114.220177 36.620007 -0.415180 209 56 46 4
27.671669 -92.057831 5.070009 209 56 46 4
22.838976 -53.948586 11.559258 209 56 46 4
26.868671 -82.113441 11.492561 209 56 46 4
68.111115 -71.385551 14.759353 209 56 46 4
-113.102455 73.889336 3.499050 209 56 46 4
14.844287 -57.594143 11.398838 209 56 46 4
-29.329779 93.639404 0.919735 209 56 46 4
-14.177951 90.316940 13.211587 209 56 46 4
-74.956688 29.527296 -0.638493 209 56 46 4
-19.393129 106.456635 1.269291 209 56 46 4
51.053913 -35.520981 19.574823 209 56 46 4
-32.031158 106.534729 10.060023 209 56 46 4
-73.524933 -45.986713 17.181635 209 56 46 4
24.220901 -89.392357 30.122055 209 56 46 4
-66.029495 -26.593290 30.174171 209 56 46 4
92.784035 68.342888 6.589207 209 56 46 4
67.949226 -70.582581 16.378342 209 56 46 4
-59.064758 -91.525360 24.159832 209 56 46 4
-19.506382 90.457664 2.108041 209 56 46 4
53.162422 -45.700520 19.401947 209 56 46 4
-21.839214 108.991455 6.042265 209 56 46 4
-64.430550 -43.795082 27.812754 209 56 46 4
-64.999229 -44.081432 27.373863 209 56 46 4
90.253021 64.773911 6.746253 209 56 46 4
13.661658 -48.671783 3.667902 209 56 46 4
-29.988176 96.332436 2.743936 209 56 46 4
60.765385 -47.671814 9.752562 209 56 46 4
-75.994263 29.514145 10.811684 209 56 46 4
68.265968 -72.262032 7.164390 209 56 46 4
61.018253 -47.476357 8.271681 209 56 46 4
-13.202401 78.958595 1.866183 209 56 46 4
59.955601 -48.377964 10.653435 209 56 46 4
-16.915981 96.276108 -0.184234 209 56 46 4
-31.552370 106.641853 6.685515 209 56 46 4
20.721489 -86.898285 20.748823 209 56 46 4
-27.777676 103.906013 10.245613 209 56 46 4
-76.768250 -2.734041 11.513946 209 56 46 4
86.843102 -85.671837 17.975655 209 56 46 4
90.906525 -31.935099 32.964695 209 56 46 4
-81.893387 -1.421344 -0.604433 209 56 46 4
-8.086864 93.628792 5.291995 209 56 46 4
-25.216854 108.163666 6.439762 209 56 46 4
-59.374912 -41.538544 11.588839 209 56 46 4
47.530308 -34.409370 19.353079 209 56 46 4
18.777634 -106.869598 26.799978 209 56 46 4
48.278538 -39.619072 19.561020 209 56 46 4
-94.500633 36.236893 -0.201498 209 56 46 4
90.752556 63.787853 6.569880 209 56 46 4
71.158485 -85.612808 8.749783 209 56 46 4
-16.306290 93.753288 8.681976 209 56 46 4
45.698704 -12.364841 17.126209 209 56 46 4
-27.531124 107.606941 4.340198 209 56 46 4
-80.792892 -30.122894 26.829590 209 56 46 4
93.742836 0.847729 16.938198 209 56 46 4
86.338997 58.517487 5.621465 209 56 46 4
-18.653330 85.616478 7.357402 209 56 46 4
-22.309793 92.998482 10.226957 209 56 46 4
21.882715 -88.549141 30.155495 209 56 46 4
-17.257086 97.637161 0.790460 209 56 46 4
-29.957951 96.149849 0.245546 209 56 46 4
-86.514709 36.402905 10.937222 209 56 46 4
106.765831 29.165228 -0.935037 209 56 46 4
26.795542 -91.860718 16.695707 209 56 46 4
-76.705688 -39.043896 13.659946 209 56 46 4
-83.608978 -1.297074 -0.745730 209 56 46 4
-31.644358 103.207100 2.767024 209 56 46 4
-19.445036 106.768562 3.773000 209 56 46 4
107.069366 29.460426 1.538498 209 56 46 4
21.639826 -85.995895 30.150866 209 56 46 4
-99.655678 84.818275 -0.006944 209 56 46 4
-74.478294 -26.850649 10.851669 209 56 46 4
-65.381027 -40.099094 30.261410 209 56 46 4
-23.969381 90.229538 10.265167 209 56 46 4
-87.671127 35.581028 10.996631 209 56 46 4
52.870262 -46.680710 18.819626 209 56 46 4
86.810722 12.519444 15.756835 209 56 46 4
43.589333 -37.394032 13.329015 209 56 46 4
-12.769703 27.481981 5.292201 209 56 46 4
57.669075 -50.288326 13.058798 209 56 46 4
40.653709 -17.917570 8.589097 209 56 46 4
23.157978 -90.428352 30.157818 209 56 46 4
-86.012421 -13.283693 21.245777 209 56 46 4
-85.860313 -10.348619 6.171363 209 56 46 4
-81.025803 -15.546186 21.913498 209 56 46 4
-30.338165 97.785782 3.665679 209 56 46 4
86.685837 57.053444 1.226630 209 56 46 4
-101.145805 84.822670 14.937083 209 56 46 4
8.425211 -106.007874 12.225932 209 56 46 4
0.269248 14.974445 4.887617 209 56 46 4
48.354118 -41.268772 19.185501 209 56 46 4
56.609756 -42.262867 19.697588 209 56 46 4
23.024374 -67.497978 5.475959 209 56 46 4
-89.918999 39.794228 10.041500 209 56 46 4
28.410963 -54.337364 11.222381 209 56 46 4
8.441111 -98.598442 4.489381 209 56 46 4
-98.951576 76.015274 8.924474 209 56 46 4
-73.498375 -32.773846 30.492290 209 56 46 4
-21.142620 93.067245 10.214237 209 56 46 4
-28.313597 100.377953 10.238078 209 56 46 4
-58.480347 -91.383133 23.722364 209 56 46 4
-105.902580 77.120941 19.106749 209 56 46 4
-88.622955 42.045212 -0.318408 209 56 46 4
-23.921469 89.395309 2.674969 209 56 46 4
22.690807 -85.153198 30.144167 209 56 46 4
-75.546555 24.047106 -2.584318 209 56 46 4
-25.941645 107.983337 6.105117 209 56 46 4
-23.523151 95.065445 10.251265 209 56 46 4
-114.219345 77.303001 0.071972 209 56 46 4
85.511627 -65.353432 24.019587 209 56 46 4
53.360901 -47.176765 18.670677 209 56 46 4
-29.167395 92.902573 2.000060 209 56 46 4
-67.562027 -23.727209 19.484777 209 56 46 4
119.695618 31.753313 14.917153 209 56 46 4
-77.851128 27.963112 10.843896 209 56 46 4
50.016872 -30.132221 16.759693 209 56 46 4
78.850105 -87.354370 16.986069 209 56 46 4
22.208820 -81.017113 28.145351 209 56 46 4
-14.500358 90.499062 13.128603 209 56 46 4
-93.846718 34.540222 7.841326 209 56 46 4
-25.714445 108.029938 9.533777 209 56 46 4
74.635376 -83.736595 25.630526 209 56 46 4
-57.587078 -83.321602 6.855786 209 56 46 4
44.661400 -38.681461 14.154838 209 56 46 4
17.831932 -111.772408 16.149261 209 56 46 4
-86.261658 -11.921354 19.825077 209 56 46 4
47.455055 -34.881824 19.407297 209 56 46 4
55.902073 -37.138847 17.330021 209 56 46 4
-65.955780 -25.220243 2.987305 209 56 46 4
18.270800 -107.162331 26.808998 209 56 46 4
-86.405228 -12.508153 10.873819 209 56 46 4
-100.699326 84.848984 7.675953 209 56 46 4
-77.661194 21.941046 8.523847 209 56 46 4
-17.984312 80.573799 0.679929 209 56 46 4
51.928822 -40.689892 20.139046 209 56 46 4
71.293068 -86.205261 22.176294 209 56 46 4
-12.947312 79.003731 5.674963 209 56 46 4
-84.785751 -15.472003 21.922962 209 56 46 4
27.033815 -91.918159 28.149557 209 56 46 4
50.526684 -35.915573 19.734913 209 56 46 4
-30.354462 97.680473 -0.383440 209 56 46 4
-76.582413 -8.054805 8.717357 209 56 46 4
30.763029 -84.250595 14.907463 209 56 46 4
-25.757757 103.679359 10.272316 209 56 46 4
-65.213814 -40.422081 30.200159 209 56 46 4
-78.773201 22.932350 10.292035 209 56 46 4
-91.577049 39.098007 -2.649239 209 56 46 4
-104.589088 74.552711 0.500835 209 56 46 4
-111.106262 74.040756 7.869265 209 56 46 4
81.971519 -86.701607 7.642836 209 56 46 4
-14.734232 92.769241 9.906089 209 56 46 4
59.943672 -48.340225 6.363922 209 56 46 4
-99.552475 81.184883 19.223000 209 56 46 4
7.561842 -102.079048 8.059978 209 56 46 4
-102.346840 84.740898 14.777731 209 56 46 4
-28.958246 92.195274 1.821960 209 56 46 4
85.224670 -86.018608 8.330367 209 56 46 4
78.448380 -65.073555 17.742945 209 56 46 4
-15.952518 91.318527 8.876002 209 56 46 4
89.670296 -2.769892 21.443825 209 56 46 4
-113.896790 80.645950 19.178940 209 56 46 4
17.327478 -111.866806 22.347462 209 56 46 4
-16.688797 85.967857 12.214188 209 56 46 4
-114.495735 80.703720 9.607024 209 56 46 4
1.859111 15.125777 5.098661 209 56 46 4
84.251434 64.602760 2.109545 209 56 46 4
-25.838932 100.203300 10.262456 209 56 46 4
-81.783676 25.763630 10.938107 209 56 46 4
114.752266 36.479889 14.471669 209 56 46 4
-19.823809 108.335266 9.934244 209 56 46 4
-57.189117 -90.927109 2.956255 209 56 46 4
21.314310 -111.033203 23.974354 209 56 46 4
21.515032 -83.620438 4.636972 209 56 46 4
59.452648 -44.195984 18.665306 209 56 46 4
-66.130989 -41.727776 30.051977 209 56 46 4
-29.253487 98.329147 10.259326 209 56 46 4
-10.334943 33.088535 1.700233 209 56 46 4
-28.777576 91.352264 1.432076 209 56 46 4
122.903885 11.104722 0.429682 209 56 46 4
-19.862514 108.574532 9.347110 209 56 46 4
-58.815739 -89.384644 24.432636 209 56 46 4
50.459064 -39.420124 20.066586 209 56 46 4
-66.497238 -32.525158 30.655794 209 56 46 4
-89.329964 37.815300 10.529467 209 56 46 4
-92.881882 34.776863 10.454659 209 56 46 4
-16.451010 94.473320 1.432419 209 56 46 4
-26.203899 107.932022 1.629348 209 56 46 4
-60.174828 -37.924515 16.379002 209 56 46 4
24.402727 -84.241493 30.149994 209 56 46 4
-16.768408 81.885666 12.038186 209 56 46 4
-31.037300 100.614243 4.068563 209 56 46 4
43.762157 -37.575409 12.301005 209 56 46 4
28.015965 -83.545921 30.135389 209 56 46 4
40.645306 -17.858454 9.536163 209 56 46 4
109.480400 28.349033 15.294381 209 56 46 4
-58.462879 -89.702271 24.358479 209 56 46 4
-69.691895 -35.663155 30.640848 209 56 46 4
121.728966 32.722481 3.180447 209 56 46 4
80.609596 -87.036186 5.893020 209 56 46 4
-72.042915 -34.604259 30.599504 209 56 46 4
-99.776154 82.903679 18.972240 209 56 46 4
-24.640656 94.913490 10.240463 209 56 46 4
56.501797 -51.287991 12.671931 209 56 46 4
-83.864319 38.509277 7.195712 209 56 46 4
52.530277 -41.027069 20.149021 209 56 46 4
23.127632 -81.221992 11.184359 209 56 46 4
-74.575996 -42.105995 30.476192 209 56 46 4
106.039551 20.236391 11.323232 209 56 46 4
88.330399 -85.332275 2.799467 209 56 46 4
51.509064 -41.399849 20.064333 209 56 46 4
-98.914085 75.503983 12.647109 209 56 46 4
67.562141 -68.880211 18.132187 209 56 46 4
-86.504501 27.132170 5.703969 209 56 46 4
-80.440170 31.020918 11.148622 209 56 46 4
-6.449058 90.786224 7.433962 209 56 46 4
67.671097 -69.204926 25.383518 209 56 46 4
-29.586641 94.697105 8.862115 209 56 46 4
-90.273834 31.902002 11.043464 209 56 46 4
-28.956429 95.094460 10.220706 209 56 46 4
-20.897083 109.225731 6.808561 209 56 46 4
46.435459 -33.625740 18.904867 209 56 46 4
-86.031868 37.119545 10.949038 209 56 46 4
-99.170830 74.978027 15.701089 209 56 46 4
108.154236 18.099182 0.680183 209 56 46 4
29.945652 -87.710648 13.735068 209 56 46 4
83.759995 13.188379 7.145478 209 56 46 4
-83.561783 -6.008056 21.563036 209 56 46 4
49.040852 -38.933216 19.879322 209 56 46 4
-9.645157 93.337479 12.478178 209 56 46 4
26.986532 -91.895096 27.322987 209 56 46 4
-27.626116 101.143059 10.260372 209 56 46 4
29.929834 -82.848877 15.711764 209 56 46 4
-84.265930 -6.045204 21.187883 209 56 46 4
70.836136 -84.069534 21.612549 209 56 46 4
-112.908958 79.656319 19.234587 209 56 46 4
-17.598629 99.042145 1.131659 209 56 46 4
-81.293655 35.919746 -4.269896 209 56 46 4
-71.763519 -38.939568 30.621840 209 56 46 4
-24.616499 93.617943 10.248104 209 56 46 4
54.873642 -44.468636 19.949095 209 56 46 4
53.479897 -27.328564 10.049482 209 56 46 4
33.248714 -53.199108 3.295957 209 56 46 4
-31.092169 100.889275 10.134450 209 56 46 4
-77.984909 24.839872 10.516205 209 56 46 4
86.775719 56.821056 4.601895 209 56 46 4
112.457764 24.130030 14.804620 209 56 46 4
-27.437634 107.621796 9.960084 209 56 46 4
87.562233 -76.350800 25.639742 209 56 46 4
-104.679802 80.666870 19.231649 209 56 46 4
48.676231 -29.847445 6.337286 209 56 46 4
88.220039 10.147498 18.116991 209 56 46 4
22.009005 -82.686905 30.185459 209 56 46 4
-17.775259 100.004341 4.227470 209 56 46 4
-28.615578 90.693077 1.564992 209 56 46 4
-67.103096 -83.850883 21.314379 209 56 46 4
11.524459 -113.134056 25.006998 209 56 46 4
91.467918 72.901726 3.758383 209 56 46 4
60.943371 -47.542271 9.596164 209 56 46 4
-72.812172 -26.102461 6.905507 209 56 46 4
-99.017647 76.907478 1.195015 209 56 46 4
73.191452 -72.441246 25.659151 209 56 46 4
-74.111122 25.679161 9.677895 209 56 46 4
-75.476028 -3.030415 3.308372 209 56 46 4
50.797905 -33.686558 18.831543 209 56 46 4
-18.109016 81.671806 3.846850 209 56 46 4
43.655411 -34.037376 14.262652 209 56 46 4
22.538191 -84.177261 30.140631 209 56 46 4
-77.488686 -4.899960 21.725338 209 56 46 4
-75.052177 -33.097836 30.423641 209 56 46 4
-114.038277 76.683174 19.136717 209 56 46 4
107.648491 26.198009 15.391850 209 56 46 4
89.607498 7.839272 6.205416 209 56 46 4
82.191345 -37.360374 11.730398 209 56 46 4
-85.140961 -7.480956 7.574490 209 56 46 4
-67.665230 -45.191750 29.035744 209 56 46 4
-114.720016 83.691757 13.106692 209 56 46 4
47.536701 -30.814747 7.557903 209 56 46 4
55.657631 -41.106365 19.837011 209 56 46 4
-18.915691 87.542435 -1.791049 209 56 46 4
-3.947838 33.782547 0.982039 209 56 46 4
88.857841 72.034645 2.703789 209 56 46 4
-99.176537 78.775398 -0.113619 209 56 46 4
-68.375145 -30.255802 30.471626 209 56 46 4
-98.935326 75.554581 10.180473 209 56 46 4
41.771721 -21.819838 13.876072 209 56 46 4
-14.813934 90.519485 12.986639 209 56 46 4
-65.765259 -83.362282 20.438246 209 56 46 4
-76.421959 -38.810703 30.647266 209 56 46 4
-79.158813 -33.692822 25.791409 209 56 46 4
48.219200 -33.126087 18.966936 209 56 46 4
85.247269 -64.150452 6.908887 209 56 46 4
-104.140221 84.594284 12.004740 209 56 46 4
116.550560 37.913738 13.666236 209 56 46 4
-23.546124 92.625488 10.243575 209 56 46 4
48.645958 -41.241306 19.350586 209 56 46 4
-20.204052 90.315529 2.837155 209 56 46 4
71.593231 -81.437943 25.677296 209 56 46 4
-18.263323 101.957191 2.861798 209 56 46 4
23.286121 -83.027458 30.134659 209 56 46 4
-102.224716 77.749962 19.138350 209 56 46 4
-73.418648 -29.098759 30.021030 209 56 46 4
-90.148697 36.722748 10.541965 209 56 46 4
-78.710762 -28.798758 8.326121 209 56 46 4
-91.642761 39.054977 -1.152540 209 56 46 4
53.911110 -49.663910 6.070697 209 56 46 4
53.688526 -45.994827 19.437178 209 56 46 4
-79.394554 -31.806396 30.042641 209 56 46 4
54.321407 -36.474709 18.920141 209 56 46 4
29.788500 -88.357780 26.973942 209 56 46 4
86.769608 12.568407 6.509326 209 56 46 4
76.250587 -65.561630 4.978877 209 56 46 4
-114.026627 75.063179 6.425328 209 56 46 4
-75.821709 -5.078778 7.572754 209 56 46 4
45.035217 -14.273356 17.141069 209 56 46 4
-74.215538 -26.762968 28.818583 209 56 46 4
21.969374 -90.735275 12.437168 209 56 46 4
21.739439 -82.633087 14.790711 209 56 46 4
54.874756 -12.636979 9.210597 209 56 46 4
-76.037651 -5.943494 2.910551 209 56 46 4
-77.899811 23.928471 10.324863 209 56 46 4
-19.339684 90.867142 -0.815652 209 56 46 4
-16.316742 93.855110 1.122907 209 56 46 4
-31.795050 103.813789 2.709421 209 56 46 4
41.334003 -20.246849 16.605661 209 56 46 4
-85.658646 -9.487002 5.359325 209 56 46 4
-21.236691 90.041229 4.142607 209 56 46 4
-75.667404 -4.366903 11.197579 209 56 46 4
54.669376 -45.981556 19.576183 209 56 46 4
-26.376619 96.203316 10.251347 209 56 46 4
52.473740 -47.978027 15.637303 209 56 46 4
-73.360443 26.215908 6.166054 209 56 46 4
112.496429 27.086807 15.634917 209 56 46 4
-85.682701 40.370983 -3.403780 209 56 46 4
85.481865 -79.077606 25.674868 209 56 46 4
-75.483307 -36.251648 30.622160 209 56 46 4
-105.847992 77.136726 19.087894 209 56 46 4
30.329483 -51.191795 9.557178 209 56 46 4
21.036690 -85.606522 22.903826 209 56 46 4
-29.247364 93.246788 7.113036 209 56 46 4
115.875854 25.692907 3.922834 209 56 46 4
61.692650 -44.021114 7.749866 209 56 46 4
26.525858 -91.805923 21.741802 209 56 46 4
-84.359268 -6.085657 21.132267 209 56 46 4
20.629162 -101.613602 26.782944 209 56 46 4
-92.435585 38.282360 -0.862920 209 56 46 4
86.947632 -71.896378 20.684549 209 56 46 4
-83.016457 -4.114595 21.569302 209 56 46 4
-112.244453 75.319572 18.775740 209 56 46 4
-77.921730 -13.417576 18.230015 209 56 46 4
-79.087662 20.529825 8.910755 209 56 46 4
-16.366205 91.242424 9.867473 209 56 46 4
-9.027843 87.879341 12.493952 209 56 46 4
75.562912 8.277308 7.962316 209 56 46 4
21.807789 -102.460915 18.848112 209 56 46 4
25.602125 -91.556335 24.761539 209 56 46 4
-25.910717 88.914864 7.868167 209 56 46 4
29.943501 -87.627190 12.075656 209 56 46 4
89.621407 -30.190613 32.825047 209 56 46 4
-61.866436 -40.418907 29.908773 209 56 46 4
103.911102 26.330210 -0.623696 209 56 46 4
-77.019524 -30.376575 29.959427 209 56 46 4
-79.052925 -33.903450 5.797195 209 56 46 4
13.871031 -98.920853 26.824484 209 56 46 4
82.499176 -86.629654 15.153508 209 56 46 4
-24.105616 91.160385 10.243421 209 56 46 4
-24.869854 89.175354 -0.221078 209 56 46 4
24.408434 -48.025471 8.834633 209 56 46 4
24.039215 -88.773911 30.141497 209 56 46 4
-63.552055 -33.077564 30.655561 209 56 46 4
19.031111 -48.668575 11.352320 209 56 46 4
30.433807 -85.693184 25.975035 209 56 46 4
-21.409187 109.080330 9.174430 209 56 46 4
-71.340652 -25.447102 25.023565 209 56 46 4
-60.540005 -42.036022 6.667247 209 56 46 4
21.564716 -83.397995 5.229885 209 56 46 4
-19.785940 108.158905 -0.881343 209 56 46 4
-82.792221 37.438728 1.156036 209 56 46 4
-18.400005 83.683762 9.830288 209 56 46 4
21.572502 -90.620567 25.122841 209 56 46 4
-93.656197 37.082500 -2.639575 209 56 46 4
53.793358 -37.141533 19.468744 209 56 46 4
-73.650154 -45.740036 15.988080 209 56 46 4
-18.168459 81.988441 9.884884 209 56 46 4
57.041630 -46.248707 19.503216 209 56 46 4
-75.122337 -27.165796 22.986435 209 56 46 4
-19.586960 107.330605 1.420556 209 56 46 4
-68.610649 -94.564636 -0.672239 209 56 46 4
78.436325 2.941076 19.369965 209 56 46 4
-22.001175 89.872986 1.895736 209 56 46 4
29.467920 -89.778465 4.281292 209 56 46 4
-16.298201 93.748512 1.739280 209 56 46 4
-11.448830 24.501844 6.631866 209 56 46 4
-72.023979 -25.749996 6.764394 209 56 46 4
59.538116 -41.460949 5.140196 209 56 46 4
-17.998827 90.855049 3.309162 209 56 46 4
-72.411720 -28.742344 30.043190 209 56 46 4
47.472340 -30.884684 15.315058 209 56 46 4
-79.679413 -3.299878 22.093149 209 56 46 4
109.401459 19.227888 8.470365 209 56 46 4
71.564774 -87.472694 10.856188 209 56 46 4
99.512527 75.001038 3.926092 209 56 46 4
-63.147388 -42.531132 29.443705 209 56 46 4
-79.643661 33.112011 11.207515 209 56 46 4
93.201134 -30.939219 33.043758 209 56 46 4
-15.415678 91.895210 12.860739 209 56 46 4
