ply
format ascii 1.0
element vertex 1097
property float x
property float y
property float z
property uchar red
property uchar green
property uchar blue
property int label
end_header
-64.826241 83.677132 -2.956306 173 46 184 7
39.127731 88.940285 1.160988 173 46 184 7
-84.420448 30.487360 -3.909933 173 46 184 7
-108.922997 -55.544987 1.897921 173 46 184 7
-41.420654 -12.390615 -1.816740 173 46 184 7
-25.902374 -25.529276 -0.813916 173 46 184 7
53.053703 17.522896 5.861939 173 46 184 7
20.110172 -102.955017 2.644316 173 46 184 7
99.742188 -76.830948 1.641094 173 46 184 7
-63.493805 -37.540554 -1.255550 173 46 184 7
54.347301 -0.157606 7.475024 173 46 184 7
81.789474 -39.427166 4.534676 173 46 184 7
-112.793518 24.907940 0.375451 173 46 184 7
0.853890 69.793083 -1.564077 173 46 184 7
-71.091179 -35.157394 -0.361356 173 46 184 7
-26.953548 -99.280983 -0.635281 173 46 184 7
-93.438568 16.398375 -2.127147 173 46 184 7
107.205666 107.753723 -0.994612 173 46 184 7
-85.357079 -21.334547 1.103989 173 46 184 7
-63.462608 10.662549 -3.372673 173 46 184 7
99.563316 -76.835464 1.811829 173 46 184 7
117.643265 104.198204 -0.680022 173 46 184 7
-95.400002 -46.655281 1.873563 173 46 184 7
-62.902622 -81.443497 -1.310464 173 46 184 7
53.025780 17.126678 6.550723 173 46 184 7
-42.479160 29.784750 -4.223234 173 46 184 7
66.143600 -75.562981 3.130110 173 46 184 7
-25.673330 -25.870739 -1.313518 173 46 184 7
81.632500 -39.883419 3.331742 173 46 184 7
84.148865 47.697765 0.488016 173 46 184 7
-93.003334 16.141693 -2.037655 173 46 184 7
84.227936 47.788891 0.405169 173 46 184 7
84.183449 47.670750 0.545005 173 46 184 7
55.301006 -0.165585 6.826445 173 46 184 7
0.141237 70.072304 -0.919208 173 46 184 7
-62.922653 -81.473518 -1.575125 173 46 184 7
84.298424 47.719986 0.504262 173 46 184 7
45.091835 93.301048 0.390331 173 46 184 7
-94.632462 -46.491791 1.747097 173 46 184 7
-103.571365 16.225996 0.230777 173 46 184 7
117.458603 104.589813 0.048071 173 46 184 7
-103.280533 16.497089 -1.070937 173 46 184 7
-93.133156 16.157335 -1.787974 173 46 184 7
-59.348408 24.174349 -4.370328 173 46 184 7
-63.423157 -37.447063 -0.802491 173 46 184 7
33.192318 -91.537399 2.756976 173 46 184 7
69.370682 -91.551712 3.720037 173 46 184 7
81.973785 -39.828571 3.999448 173 46 184 7
-41.812130 -12.940579 -1.722068 173 46 184 7
107.135757 76.043037 -2.685167 173 46 184 7
-70.963737 -34.849220 -1.127121 173 46 184 7
-113.110344 25.172932 0.507818 173 46 184 7
62.335350 -79.471352 4.540567 173 46 184 7
-63.574306 -37.543438 -1.217784 173 46 184 7
66.034767 -75.634171 4.490767 173 46 184 7
37.105087 -102.045486 4.381854 173 46 184 7
8.957194 -91.204247 1.781340 173 46 184 7
-113.046852 25.208237 0.412782 173 46 184 7
82.693420 79.846809 -0.712039 173 46 184 7
-63.028526 -81.695465 -1.465967 173 46 184 7
69.384781 -91.144066 3.724936 173 46 184 7
-108.753456 -55.467461 2.180184 173 46 184 7
-64.659370 83.593376 -1.816400 173 46 184 7
62.160271 -79.718803 3.848845 173 46 184 7
37.728027 -102.271828 4.762573 173 46 184 7
39.190472 88.943192 0.971342 173 46 184 7
81.843941 -39.973686 3.196304 173 46 184 7
-41.599339 -12.459337 -1.490428 173 46 184 7
30.320414 11.533162 6.294278 173 46 184 7
85.268784 -90.881310 2.961667 173 46 184 7
106.572479 107.219925 -0.646028 173 46 184 7
-64.623360 83.609787 -2.028807 173 46 184 7
0.696495 70.180962 -1.165021 173 46 184 7
44.321888 93.269203 0.768271 173 46 184 7
-24.845116 -25.014650 -0.390906 173 46 184 7
-69.633186 -49.693111 -0.981438 173 46 184 7
-27.134935 -99.103882 -1.112012 173 46 184 7
-85.039452 -21.223467 0.683222 173 46 184 7
84.578690 -91.723343 3.136405 173 46 184 7
31.940880 -102.656967 3.261855 173 46 184 7
-92.894836 16.905993 -1.534522 173 46 184 7
-63.694412 10.640573 -3.930078 173 46 184 7
62.355274 -79.850136 4.523872 173 46 184 7
0.456128 69.941360 -1.720429 173 46 184 7
-63.911400 10.091595 -2.717647 173 46 184 7
62.198071 -79.541977 3.353662 173 46 184 7
-84.326134 30.459244 -4.291536 173 46 184 7
52.850300 17.249245 6.715926 173 46 184 7
45.143749 92.467514 1.632715 173 46 184 7
-63.533085 -37.458382 -1.501088 173 46 184 7
10.909321 85.805862 0.252512 173 46 184 7
-93.196899 17.327833 -2.249157 173 46 184 7
-64.685524 83.842659 -3.095591 173 46 184 7
33.260208 -91.526436 3.502322 173 46 184 7
-65.204391 83.604469 -3.119440 173 46 184 7
-56.836246 -83.879372 -2.445014 173 46 184 7
-42.681633 29.637630 -4.735272 173 46 184 7
82.679054 79.772552 -1.211286 173 46 184 7
51.759285 68.984093 1.283219 173 46 184 7
-47.609428 92.989952 -0.892577 173 46 184 7
37.333305 -102.190796 4.791518 173 46 184 7
0.233136 70.334595 -1.050995 173 46 184 7
4.202118 59.898792 -0.097788 173 46 184 7
109.013039 -92.045074 1.340663 173 46 184 7
83.049088 80.094772 -1.406736 173 46 184 7
8.808003 -91.067841 1.422467 173 46 184 7
-95.581268 -47.229488 2.091737 173 46 184 7
-71.276764 -36.075424 -0.834961 173 46 184 7
33.235718 -91.550987 3.669976 173 46 184 7
107.265091 76.242188 -1.837451 173 46 184 7
116.888397 103.353477 -0.720096 173 46 184 7
-57.251152 -82.299751 -1.405506 173 46 184 7
-69.814934 -49.702442 -0.865390 173 46 184 7
108.856689 -91.861115 1.395247 173 46 184 7
-93.515656 17.271128 -1.635067 173 46 184 7
-47.434521 92.851013 -1.060404 173 46 184 7
54.984303 -0.583422 7.102246 173 46 184 7
21.193838 -64.889450 1.339813 173 46 184 7
-42.613068 29.728868 -4.987261 173 46 184 7
-26.987190 -99.087608 -0.408999 173 46 184 7
16.356558 -104.742935 3.214045 173 46 184 7
37.024258 -102.182556 4.374642 173 46 184 7
83.042664 80.224876 -0.244726 173 46 184 7
16.103329 -104.726501 3.232711 173 46 184 7
33.139332 -91.571442 3.264220 173 46 184 7
62.251602 -79.689728 4.387978 173 46 184 7
-108.988091 -55.522717 1.806900 173 46 184 7
47.521648 109.713028 2.148685 173 46 184 7
69.404053 -90.948814 3.304832 173 46 184 7
-62.988846 -81.570808 -1.921555 173 46 184 7
15.932280 -104.525787 3.275937 173 46 184 7
-41.236465 -11.913841 -1.713600 173 46 184 7
-47.491562 92.846176 -1.378324 173 46 184 7
-42.284657 30.163868 -5.021770 173 46 184 7
84.250427 47.648281 -0.212498 173 46 184 7
-26.679276 -99.331810 -0.898657 173 46 184 7
16.060497 -104.601974 3.380374 173 46 184 7
-63.006653 -81.634796 -0.950168 173 46 184 7
-69.808800 -49.729301 -1.143978 173 46 184 7
-58.206944 -83.317886 -2.359097 173 46 184 7
99.123116 -76.764359 1.204744 173 46 184 7
85.120430 -91.346313 2.994529 173 46 184 7
115.925514 103.781937 -1.122378 173 46 184 7
-112.175369 25.864426 -0.098119 173 46 184 7
18.811092 -72.043709 1.486467 173 46 184 7
-41.798336 -11.849627 -1.904218 173 46 184 7
-104.565460 96.176872 0.801777 173 46 184 7
51.783344 68.957314 0.257165 173 46 184 7
-59.186077 24.165167 -5.033988 173 46 184 7
84.176773 47.657627 0.018174 173 46 184 7
116.107109 104.205162 -0.927324 173 46 184 7
-26.713850 -99.237259 -1.080291 173 46 184 7
-59.243332 24.051174 -4.932478 173 46 184 7
109.010201 -92.002106 0.574679 173 46 184 7
107.359795 76.056953 -2.132335 173 46 184 7
109.249207 -92.019943 0.877869 173 46 184 7
-43.014744 30.450626 -4.214622 173 46 184 7
-63.723320 -37.474625 -1.786074 173 46 184 7
-41.904690 -12.111713 -1.630928 173 46 184 7
-48.728645 92.695702 -2.114951 173 46 184 7
-64.943802 83.200500 -2.804701 173 46 184 7
-113.167679 24.855755 0.095886 173 46 184 7
83.151680 79.636765 -1.330637 173 46 184 7
-42.816681 30.593956 -4.222118 173 46 184 7
8.832049 -91.367439 0.540788 173 46 184 7
107.432877 76.081566 -2.676732 173 46 184 7
116.484818 103.816261 -0.001690 173 46 184 7
-112.885002 24.987026 -0.141738 173 46 184 7
-96.945961 28.182636 -2.136329 173 46 184 7
52.942837 17.243849 6.844223 173 46 184 7
-48.343445 92.043648 -0.996948 173 46 184 7
-63.636501 -37.471794 -0.637599 173 46 184 7
55.219524 -0.444993 7.739658 173 46 184 7
84.041931 -91.499771 3.184942 173 46 184 7
106.858017 108.364525 0.283421 173 46 184 7
44.869987 92.658653 0.294624 173 46 184 7
-59.361813 23.984388 -4.736680 173 46 184 7
100.177010 -76.838722 0.894283 173 46 184 7
84.444275 -91.640274 2.871408 173 46 184 7
-59.306198 24.066364 -5.233745 173 46 184 7
98.949730 -75.951698 1.425601 173 46 184 7
-57.515747 -82.936035 -2.345095 173 46 184 7
107.257278 76.156837 -1.816174 173 46 184 7
33.297470 -91.525925 3.312942 173 46 184 7
-64.732498 84.157257 -2.470178 173 46 184 7
-84.916489 -21.749989 0.653226 173 46 184 7
-41.366783 -12.615706 -1.547703 173 46 184 7
46.826351 109.317772 1.379904 173 46 184 7
18.765379 -71.588394 2.052513 173 46 184 7
21.220177 -65.563217 1.977459 173 46 184 7
30.161047 11.876484 5.729558 173 46 184 7
-95.964935 -47.533001 1.669667 173 46 184 7
-57.875561 -83.910698 -1.635432 173 46 184 7
-104.385010 95.323738 1.645167 173 46 184 7
-42.128796 -12.545084 -1.434393 173 46 184 7
-113.258034 25.593973 0.525905 173 46 184 7
99.429771 -76.894386 1.136052 173 46 184 7
-43.083767 29.810568 -4.567441 173 46 184 7
-0.001794 69.899170 -1.197679 173 46 184 7
37.502724 -101.993034 3.465924 173 46 184 7
116.729164 103.586403 -0.299410 173 46 184 7
106.328979 108.340416 -0.111440 173 46 184 7
-71.549255 -36.002781 -1.049709 173 46 184 7
-84.202484 30.754978 -3.998688 173 46 184 7
-56.836891 -82.738853 -2.065598 173 46 184 7
0.293758 69.976303 -1.327940 173 46 184 7
46.570183 109.505104 2.415566 173 46 184 7
-92.867935 16.599327 -2.198912 173 46 184 7
69.443367 -90.858894 3.481032 173 46 184 7
-109.128075 -55.666470 1.888447 173 46 184 7
-84.231964 30.669807 -3.698654 173 46 184 7
108.958054 -91.953468 0.147129 173 46 184 7
82.167168 79.449036 -1.046423 173 46 184 7
18.431581 -71.853317 1.523472 173 46 184 7
20.051098 -103.207443 3.766718 173 46 184 7
83.372543 79.603134 -1.107657 173 46 184 7
-62.837891 -81.506699 -1.547818 173 46 184 7
9.139443 -91.410492 1.577256 173 46 184 7
45.502216 92.654495 0.603332 173 46 184 7
-41.411167 -12.187403 -1.458909 173 46 184 7
-93.114853 17.668764 -1.786106 173 46 184 7
20.997093 -65.139076 1.919487 173 46 184 7
-85.362137 -21.314241 1.285152 173 46 184 7
51.755241 68.903503 0.643639 173 46 184 7
108.904327 -91.795334 1.401680 173 46 184 7
-63.506714 10.280418 -2.551581 173 46 184 7
-63.130886 -81.289444 -1.900540 173 46 184 7
-59.327148 24.235228 -4.629657 173 46 184 7
10.425410 85.495796 0.596078 173 46 184 7
-26.749496 -98.430527 -1.352457 173 46 184 7
45.073769 92.644272 0.385259 173 46 184 7
-25.173370 -25.096470 -1.346884 173 46 184 7
3.901965 59.983707 -0.571420 173 46 184 7
-95.519814 -46.765423 1.338112 173 46 184 7
-95.276443 -46.492371 1.678232 173 46 184 7
107.549957 76.178101 -2.125332 173 46 184 7
-84.092117 30.564020 -4.227948 173 46 184 7
-69.681778 -49.803860 -0.552193 173 46 184 7
-59.202801 24.162346 -4.926700 173 46 184 7
51.851784 68.865898 1.095396 173 46 184 7
84.516617 -91.196556 2.423474 173 46 184 7
-62.974812 -81.484451 -1.636494 173 46 184 7
-108.876915 -55.462170 2.927604 173 46 184 7
-25.716799 -25.382484 -0.407999 173 46 184 7
33.249550 -91.550934 2.945381 173 46 184 7
-47.752670 92.273766 -1.623438 173 46 184 7
46.842136 109.462311 1.276388 173 46 184 7
-40.953686 -12.914090 -0.889297 173 46 184 7
107.237343 108.199638 0.154245 173 46 184 7
-26.784166 -99.275093 -1.417202 173 46 184 7
-63.780361 10.273351 -3.590017 173 46 184 7
8.974043 -91.542778 0.870254 173 46 184 7
20.119469 -103.139847 2.436338 173 46 184 7
-97.087029 27.881571 -2.834416 173 46 184 7
-48.890198 92.301254 -0.927424 173 46 184 7
51.842499 68.998116 1.490375 173 46 184 7
-43.249722 29.511637 -5.332874 173 46 184 7
16.191683 -104.783173 2.311699 173 46 184 7
108.926186 -91.788246 0.801646 173 46 184 7
-64.091576 10.317242 -3.560581 173 46 184 7
-27.012522 -99.561493 -0.501837 173 46 184 7
30.918276 12.284103 6.002539 173 46 184 7
52.554340 17.455200 6.136686 173 46 184 7
99.029793 -76.805885 0.763151 173 46 184 7
11.100195 85.523163 -0.621737 173 46 184 7
99.507385 -76.745079 0.776842 173 46 184 7
21.160601 -65.378975 2.268147 173 46 184 7
-69.689781 -49.752110 -0.886957 173 46 184 7
109.209129 -91.927536 0.405188 173 46 184 7
69.282074 -91.070808 3.011110 173 46 184 7
-109.109261 -55.346066 2.776269 173 46 184 7
8.819620 -91.446091 0.835982 173 46 184 7
-63.662445 -37.445511 -0.838010 173 46 184 7
38.190334 55.470764 1.907725 173 46 184 7
44.698776 92.803268 0.848158 173 46 184 7
16.055410 -104.702919 3.035294 173 46 184 7
37.586853 -102.283638 4.348635 173 46 184 7
8.874589 -91.409126 1.376086 173 46 184 7
62.286091 -79.764763 3.263227 173 46 184 7
-63.464489 -37.457478 -1.113557 173 46 184 7
69.402222 -91.280357 3.615984 173 46 184 7
31.915161 -102.765457 4.148923 173 46 184 7
-64.595642 83.693130 -2.900563 173 46 184 7
-85.284348 -20.886641 0.300976 173 46 184 7
83.046036 80.308502 -0.259643 173 46 184 7
54.658741 0.007798 7.020505 173 46 184 7
-64.558731 84.038490 -2.156821 173 46 184 7
-84.469147 30.525093 -3.712439 173 46 184 7
21.421846 -64.889091 1.504023 173 46 184 7
82.750000 79.737343 -0.245024 173 46 184 7
69.252907 -91.043015 3.007124 173 46 184 7
-93.178169 16.722830 -1.151128 173 46 184 7
-59.192188 24.027262 -4.468337 173 46 184 7
62.255066 -79.744598 4.341726 173 46 184 7
36.720703 -101.928345 3.954034 173 46 184 7
-103.936783 16.195717 -0.470504 173 46 184 7
0.149825 70.458519 -1.885634 173 46 184 7
-25.283644 -25.635714 -0.948512 173 46 184 7
116.077164 104.295509 -0.947033 173 46 184 7
19.239599 -71.908951 1.719218 173 46 184 7
84.188240 47.710789 -0.055636 173 46 184 7
-108.958382 -55.493217 1.896013 173 46 184 7
62.434277 -79.651001 4.131862 173 46 184 7
32.057999 -102.745583 4.559711 173 46 184 7
-71.714005 -35.560696 -0.162246 173 46 184 7
-97.052773 27.713764 -2.613609 173 46 184 7
-104.968582 95.940826 1.776428 173 46 184 7
10.456882 85.426117 -0.241913 173 46 184 7
-84.742744 -21.360428 0.958368 173 46 184 7
47.205261 108.536415 1.132805 173 46 184 7
-47.594273 93.163200 -1.154512 173 46 184 7
-84.168159 30.650604 -4.625328 173 46 184 7
-83.979942 30.581388 -3.891686 173 46 184 7
31.945456 -102.474602 3.835884 173 46 184 7
52.628819 17.070921 6.774518 173 46 184 7
-63.583843 -81.351196 -1.949231 173 46 184 7
82.806618 80.103348 -0.738493 173 46 184 7
-64.680351 83.532906 -2.935416 173 46 184 7
-63.364883 -81.683945 -1.452797 173 46 184 7
-96.720757 28.094065 -2.724263 173 46 184 7
52.917450 16.958225 6.090026 173 46 184 7
0.623354 70.641022 -0.970099 173 46 184 7
82.720055 79.508415 -1.107984 173 46 184 7
33.103481 -91.516396 3.874317 173 46 184 7
-108.906281 -55.504688 2.284216 173 46 184 7
-41.772247 -12.828535 -1.227222 173 46 184 7
9.382930 -91.591316 1.425979 173 46 184 7
-84.894012 -21.227486 0.503259 173 46 184 7
-85.632141 -21.396418 0.137912 173 46 184 7
-84.501854 -21.473341 1.048453 173 46 184 7
0.666338 70.225662 -1.345438 173 46 184 7
-63.517746 10.410685 -2.703314 173 46 184 7
29.966288 12.322391 6.052346 173 46 184 7
20.949469 -65.033882 2.334221 173 46 184 7
-63.278721 -81.354942 -1.603910 173 46 184 7
62.429169 -79.729187 3.795616 173 46 184 7
84.360092 47.722004 0.333177 173 46 184 7
82.021065 -40.066696 4.103893 173 46 184 7
-84.175117 30.637651 -4.170248 173 46 184 7
-63.578869 -37.399651 -1.581818 173 46 184 7
-62.875439 -81.514046 -2.122379 173 46 184 7
15.659934 -104.723946 3.475652 173 46 184 7
9.105531 -91.216873 1.000351 173 46 184 7
99.115448 -76.953300 1.251138 173 46 184 7
51.846516 68.854530 0.538815 173 46 184 7
9.151878 -91.536766 1.162245 173 46 184 7
-69.617088 -49.752060 -1.390749 173 46 184 7
-84.311531 30.826273 -3.925151 173 46 184 7
84.176636 47.674610 0.995221 173 46 184 7
-26.908241 -99.299873 -0.748928 173 46 184 7
109.023994 -91.960815 0.216857 173 46 184 7
-58.059906 -83.302383 -2.119885 173 46 184 7
30.189877 12.318349 6.322371 173 46 184 7
-25.554625 -25.981934 -1.183386 173 46 184 7
20.138582 -103.102646 3.356350 173 46 184 7
30.696108 11.561893 6.717951 173 46 184 7
66.154335 -75.669601 3.524007 173 46 184 7
-57.783604 -82.993622 -1.587309 173 46 184 7
55.426048 -0.201249 7.577467 173 46 184 7
39.029499 88.917969 1.076065 173 46 184 7
82.002541 -39.650734 3.376314 173 46 184 7
33.217129 -91.612083 3.958786 173 46 184 7
52.646694 17.036951 6.412082 173 46 184 7
82.154671 -39.689857 4.211660 173 46 184 7
-62.782246 -81.808685 -0.936752 173 46 184 7
-72.000557 -34.921452 -0.905446 173 46 184 7
-103.477287 16.432222 -0.147741 173 46 184 7
-113.025742 25.263725 -0.014711 173 46 184 7
-103.639008 15.720710 0.357442 173 46 184 7
84.202248 47.738758 0.055695 173 46 184 7
-103.803474 15.179856 -0.784732 173 46 184 7
-25.392069 -24.911690 -1.179281 173 46 184 7
116.324295 103.884644 -0.948078 173 46 184 7
107.372269 76.110695 -1.980363 173 46 184 7
-104.889420 95.836182 0.998626 173 46 184 7
99.120232 -76.872246 0.899049 173 46 184 7
81.792091 -39.772686 3.208424 173 46 184 7
-84.490135 30.574568 -3.719305 173 46 184 7
-92.668457 17.298903 -2.175150 173 46 184 7
20.905485 -65.056976 2.293876 173 46 184 7
-109.082306 -55.526093 1.752528 173 46 184 7
31.438303 -102.829376 3.835567 173 46 184 7
-63.900265 10.041572 -3.413014 173 46 184 7
21.183819 -65.494568 1.515266 173 46 184 7
-84.430984 -20.762691 0.865702 173 46 184 7
39.199181 88.833923 1.056688 173 46 184 7
0.657189 70.439568 -1.443865 173 46 184 7
51.784531 68.930679 1.593578 173 46 184 7
-41.408306 -12.528403 -0.848310 173 46 184 7
-113.229042 24.912195 -0.639105 173 46 184 7
82.044975 -40.066395 4.436018 173 46 184 7
106.509445 107.438751 0.184618 173 46 184 7
38.781204 55.606483 2.317883 173 46 184 7
39.325974 55.807228 1.782983 173 46 184 7
-92.866531 17.177980 -2.411303 173 46 184 7
-43.534996 30.102230 -4.208896 173 46 184 7
38.609390 55.680523 1.595436 173 46 184 7
39.098877 88.930618 0.864789 173 46 184 7
69.371292 -90.464355 3.533563 173 46 184 7
-48.009796 92.513123 -2.137640 173 46 184 7
21.340307 -65.188339 1.437012 173 46 184 7
-108.846138 -55.583878 2.525342 173 46 184 7
38.383625 55.735691 1.303976 173 46 184 7
4.367584 60.038895 -1.215299 173 46 184 7
20.110058 -103.177727 3.482018 173 46 184 7
99.755943 -76.578003 1.009489 173 46 184 7
51.834774 68.910835 0.379195 173 46 184 7
20.154093 -103.156258 3.108176 173 46 184 7
18.660084 -72.103821 1.038996 173 46 184 7
4.321823 60.356594 -0.913395 173 46 184 7
-71.790253 -35.614002 -1.001071 173 46 184 7
-63.611599 -37.554466 -0.494733 173 46 184 7
19.277548 -71.830299 1.372391 173 46 184 7
30.736904 11.845031 6.489381 173 46 184 7
-48.574188 92.577263 -2.049080 173 46 184 7
-63.858723 10.187846 -3.836633 173 46 184 7
99.475891 -76.921059 0.885299 173 46 184 7
69.762131 -91.074074 2.967584 173 46 184 7
106.602768 107.376274 -1.043033 173 46 184 7
-69.871811 -49.757034 -0.772248 173 46 184 7
-85.379005 -20.924135 0.466437 173 46 184 7
39.090740 88.705231 0.409994 173 46 184 7
46.941189 109.666656 1.325409 173 46 184 7
-109.092415 -55.706528 2.095970 173 46 184 7
18.726364 -71.912056 1.915560 173 46 184 7
52.900017 16.870020 6.434615 173 46 184 7
45.048496 92.827827 1.274155 173 46 184 7
-42.509155 29.240963 -5.040314 173 46 184 7
-105.298607 95.752037 1.814814 173 46 184 7
-112.675415 25.463007 -0.575084 173 46 184 7
-63.583427 -37.362377 -0.548218 173 46 184 7
66.019569 -75.648857 3.996012 173 46 184 7
20.121122 -103.125992 3.715964 173 46 184 7
11.061179 85.441864 0.468248 173 46 184 7
-104.378853 16.216093 -0.852670 173 46 184 7
117.488754 103.900475 -0.620870 173 46 184 7
-64.918404 83.227356 -2.774776 173 46 184 7
33.251095 -91.551315 3.989476 173 46 184 7
106.914902 107.269745 -0.716665 173 46 184 7
44.802448 92.652641 0.631535 173 46 184 7
-69.627228 -49.812244 -0.549459 173 46 184 7
-84.947784 -21.077705 1.208190 173 46 184 7
83.205048 80.210754 -0.514483 173 46 184 7
33.231880 -91.572105 3.445634 173 46 184 7
-25.575300 -25.861837 -0.480050 173 46 184 7
16.125801 -104.789139 2.996945 173 46 184 7
62.500984 -79.721802 3.253328 173 46 184 7
-84.840302 -20.811243 0.944323 173 46 184 7
-96.773621 28.132832 -2.347488 173 46 184 7
-103.610886 16.422663 -0.890825 173 46 184 7
84.203278 -91.818352 2.213531 173 46 184 7
-112.677719 24.697502 -0.608373 173 46 184 7
-26.082787 -24.760996 -1.458282 173 46 184 7
81.788452 -39.901115 3.700768 173 46 184 7
47.126602 110.161766 2.130760 173 46 184 7
-62.976326 -81.766159 -1.210526 173 46 184 7
-63.351299 10.354123 -3.917690 173 46 184 7
69.485512 -91.288925 4.286456 173 46 184 7
82.717628 80.111839 -0.454864 173 46 184 7
39.143208 88.733841 0.267623 173 46 184 7
82.136421 -39.757141 3.423470 173 46 184 7
30.705482 12.256703 6.297912 173 46 184 7
-93.663307 16.886471 -1.990432 173 46 184 7
-27.304674 -98.793442 -1.386103 173 46 184 7
84.826637 -91.620758 2.686718 173 46 184 7
37.360008 -102.195961 4.763309 173 46 184 7
-57.367149 -82.883018 -1.788203 173 46 184 7
106.224289 107.096687 -0.272764 173 46 184 7
16.328207 -104.728157 3.141090 173 46 184 7
106.267342 107.219788 0.250652 173 46 184 7
-103.234863 16.420715 0.241719 173 46 184 7
82.557831 79.756142 -1.137317 173 46 184 7
84.999496 -91.079918 2.599122 173 46 184 7
-84.363029 30.493876 -4.480190 173 46 184 7
84.274864 47.647141 0.127104 173 46 184 7
69.421326 -90.907265 2.982321 173 46 184 7
-96.932190 27.771692 -2.769794 173 46 184 7
-69.681511 -49.774677 -0.612209 173 46 184 7
39.118317 88.948425 0.270034 173 46 184 7
39.095394 88.718956 0.477230 173 46 184 7
-104.769119 96.204582 1.472863 173 46 184 7
107.255760 107.121010 -0.738953 173 46 184 7
19.975204 -103.124962 2.638531 173 46 184 7
32.290707 -102.537262 3.562845 173 46 184 7
-84.351738 30.549856 -3.454065 173 46 184 7
-95.343773 -46.478916 2.032599 173 46 184 7
98.986557 -77.321663 1.841319 173 46 184 7
62.410236 -79.655960 4.047528 173 46 184 7
18.622538 -71.984055 1.248030 173 46 184 7
-108.931679 -55.380909 3.005780 173 46 184 7
39.111462 55.704071 1.447917 173 46 184 7
-84.226616 30.769653 -4.709938 173 46 184 7
54.687401 -0.191181 7.487661 173 46 184 7
-92.202682 17.530945 -2.178170 173 46 184 7
106.684273 108.072678 -0.378631 173 46 184 7
8.837206 -91.480469 0.555246 173 46 184 7
-42.857479 29.796329 -4.136923 173 46 184 7
46.856869 109.682388 2.444575 173 46 184 7
-95.553833 -46.776718 1.698893 173 46 184 7
-59.138844 24.217218 -4.286795 173 46 184 7
109.102875 -91.853157 0.512946 173 46 184 7
62.523323 -79.781097 4.574952 173 46 184 7
85.063934 -91.609360 2.119960 173 46 184 7
-84.654778 -21.217190 0.634973 173 46 184 7
-69.794930 -49.836937 -1.407890 173 46 184 7
1.124690 70.379814 -0.566179 173 46 184 7
107.318222 75.800568 -1.920666 173 46 184 7
47.200733 110.339867 2.454350 173 46 184 7
-48.688023 92.637619 -1.974886 173 46 184 7
81.725883 -39.704983 4.376320 173 46 184 7
10.526359 85.758430 0.334392 173 46 184 7
20.183353 -103.182335 3.519896 173 46 184 7
-63.429756 10.155033 -3.368818 173 46 184 7
44.187920 93.147491 1.549931 173 46 184 7
-103.645729 16.307587 -0.300817 173 46 184 7
16.184023 -104.806007 3.257182 173 46 184 7
-69.760040 -49.687809 -0.279593 173 46 184 7
20.163963 -103.051376 3.370257 173 46 184 7
-104.424873 95.720146 1.405096 173 46 184 7
-70.949570 -35.333305 0.111936 173 46 184 7
30.336901 12.050079 5.787226 173 46 184 7
-63.804497 10.728649 -2.678500 173 46 184 7
-48.291580 92.384750 -1.143939 173 46 184 7
-85.094551 -21.632820 1.048684 173 46 184 7
-48.472343 92.600723 -1.713746 173 46 184 7
-97.068275 28.296995 -2.197533 173 46 184 7
46.909801 109.794281 2.222258 173 46 184 7
-26.573698 -98.858604 -1.637007 173 46 184 7
-103.362022 16.477997 -0.294390 173 46 184 7
20.121761 -102.919746 3.640264 173 46 184 7
-63.749836 10.246173 -2.672749 173 46 184 7
84.217659 47.713017 0.000353 173 46 184 7
51.751869 68.939110 1.513430 173 46 184 7
-25.697773 -24.440691 -1.143589 173 46 184 7
51.783436 68.862221 0.995347 173 46 184 7
37.082024 -101.874062 4.506763 173 46 184 7
37.695847 -101.993416 4.121037 173 46 184 7
-59.323502 24.050934 -5.272549 173 46 184 7
33.282696 -91.527969 3.068448 173 46 184 7
15.982139 -104.804482 3.360454 173 46 184 7
-85.558884 -20.390305 0.683289 173 46 184 7
84.696503 -91.544159 3.100897 173 46 184 7
-84.199776 30.638973 -4.277739 173 46 184 7
30.801029 11.826977 6.442586 173 46 184 7
55.426235 -0.093677 6.436253 173 46 184 7
-59.322006 24.292261 -4.518107 173 46 184 7
18.967871 -71.135841 1.413912 173 46 184 7
33.187580 -91.574654 3.412093 173 46 184 7
51.908878 68.937035 0.261157 173 46 184 7
107.081711 107.389557 -0.645286 173 46 184 7
31.848190 -102.593834 4.536373 173 46 184 7
-71.447678 -35.354847 0.005378 173 46 184 7
10.603988 85.497971 0.603636 173 46 184 7
20.107252 -103.156494 3.084377 173 46 184 7
53.224979 17.106014 5.484087 173 46 184 7
-97.291115 28.234997 -2.339347 173 46 184 7
55.050362 -0.484120 6.994449 173 46 184 7
-42.960461 29.712048 -4.764114 173 46 184 7
-42.851875 29.963568 -4.769519 173 46 184 7
4.191228 60.172569 -0.665512 173 46 184 7
30.240732 11.651644 6.224699 173 46 184 7
-63.250164 -81.612083 -2.026978 173 46 184 7
66.035126 -75.722298 3.848916 173 46 184 7
-48.219715 92.789688 -1.295344 173 46 184 7
81.737877 -39.906174 4.289696 173 46 184 7
-69.706108 -49.986103 -0.927180 173 46 184 7
84.492050 -91.730080 2.867505 173 46 184 7
-94.282959 -46.247799 1.842016 173 46 184 7
84.190102 47.661728 0.225667 173 46 184 7
39.289700 88.841988 0.690185 173 46 184 7
-25.807741 -25.202194 -1.129324 173 46 184 7
-42.806717 29.713131 -4.285034 173 46 184 7
45.353645 92.806664 1.201251 173 46 184 7
62.359009 -79.650345 4.528206 173 46 184 7
-93.050003 16.540447 -1.162728 173 46 184 7
0.424058 70.076996 -1.356597 173 46 184 7
0.374954 70.160980 -1.264594 173 46 184 7
38.296497 55.130749 2.362464 173 46 184 7
-64.438446 83.310715 -2.244822 173 46 184 7
10.637309 85.658470 0.601827 173 46 184 7
83.504379 80.236298 -0.791060 173 46 184 7
33.119118 -91.502373 3.750537 173 46 184 7
83.192322 80.899750 -0.443885 173 46 184 7
-84.074944 30.582504 -3.486346 173 46 184 7
39.118942 88.850914 0.627116 173 46 184 7
39.101768 88.885040 0.390564 173 46 184 7
-64.849785 82.994789 -2.077763 173 46 184 7
31.883692 -102.744118 3.211801 173 46 184 7
106.334084 107.529739 -0.562527 173 46 184 7
52.829140 17.214512 6.430330 173 46 184 7
44.826653 92.425537 1.547374 173 46 184 7
16.046598 -104.665085 3.531096 173 46 184 7
108.970596 -91.991234 1.184836 173 46 184 7
-59.274738 24.273054 -5.381938 173 46 184 7
20.092291 -103.040527 2.954023 173 46 184 7
-71.521149 -35.978920 -0.773991 173 46 184 7
85.077156 -91.576912 2.313854 173 46 184 7
82.924736 80.296188 -0.970390 173 46 184 7
45.376896 92.732880 0.514962 173 46 184 7
-109.042908 -55.542282 2.979226 173 46 184 7
-25.855844 -24.793577 -0.173053 173 46 184 7
-94.803444 -46.464386 1.446505 173 46 184 7
82.006203 80.213142 -0.937695 173 46 184 7
-92.551109 16.224625 -1.465105 173 46 184 7
-84.939125 -21.654896 0.401574 173 46 184 7
-26.713873 -98.528908 -1.009491 173 46 184 7
33.216843 -91.487755 3.639924 173 46 184 7
-104.927101 95.784157 1.486960 173 46 184 7
66.024605 -75.586548 4.118997 173 46 184 7
117.148201 104.317444 -1.173200 173 46 184 7
10.334023 86.068298 0.458847 173 46 184 7
4.498985 59.726921 -0.859742 173 46 184 7
-113.321907 25.333321 0.022104 173 46 184 7
84.546906 -91.489883 2.089116 173 46 184 7
10.635500 85.704353 0.243169 173 46 184 7
-92.813774 17.585091 -1.741141 173 46 184 7
33.257500 -91.631447 3.736699 173 46 184 7
-96.885788 28.013950 -2.353933 173 46 184 7
-48.227913 92.853203 -1.614257 173 46 184 7
84.176315 47.650116 0.941766 173 46 184 7
33.271633 -91.547859 3.932487 173 46 184 7
-42.127480 29.723623 -5.035394 173 46 184 7
109.075859 -92.047119 0.918916 173 46 184 7
52.736938 17.595606 6.739472 173 46 184 7
-64.629333 83.968773 -3.089193 173 46 184 7
-26.728148 -99.090172 -0.339444 173 46 184 7
33.210041 -91.589867 3.151309 173 46 184 7
10.723866 85.441742 -0.189060 173 46 184 7
82.321274 80.426003 -0.658894 173 46 184 7
-64.763229 82.823860 -3.240475 173 46 184 7
-71.148308 -35.190063 -0.020710 173 46 184 7
117.151863 103.916008 -1.263466 173 46 184 7
-58.514435 -82.817001 -1.886064 173 46 184 7
31.808201 -102.106621 3.192954 173 46 184 7
-71.827141 -35.838173 -1.131332 173 46 184 7
54.916691 -0.195194 6.983182 173 46 184 7
109.122070 -92.032814 0.407363 173 46 184 7
108.893639 -91.819359 0.793156 173 46 184 7
-85.175461 -21.365788 0.623002 173 46 184 7
-47.356594 93.393288 -1.858650 173 46 184 7
-104.697044 95.555939 0.866233 173 46 184 7
-95.376610 -46.500622 2.251157 173 46 184 7
-108.936134 -55.515736 2.244932 173 46 184 7
-63.073193 -81.928230 -1.428426 173 46 184 7
109.057289 -91.832832 0.486263 173 46 184 7
84.133995 47.609810 0.762897 173 46 184 7
51.866882 68.932899 0.779391 173 46 184 7
-84.326454 30.404541 -4.517407 173 46 184 7
-69.506416 -49.704975 -0.557249 173 46 184 7
84.606087 -91.836639 2.486394 173 46 184 7
30.852011 12.128778 6.653872 173 46 184 7
-109.100273 -55.485996 2.085870 173 46 184 7
-83.956512 30.836651 -4.585020 173 46 184 7
-84.146111 30.688715 -4.518146 173 46 184 7
-108.890915 -55.535763 2.296256 173 46 184 7
10.729231 85.557213 0.246917 173 46 184 7
11.022139 85.731697 0.414814 173 46 184 7
-105.377365 96.015091 1.465543 173 46 184 7
-71.043335 -34.343544 -0.290279 173 46 184 7
-108.984230 -55.517029 2.522531 173 46 184 7
-59.506058 24.179359 -4.182397 173 46 184 7
-97.026833 28.124517 -1.966324 173 46 184 7
-95.093460 -47.465736 1.301022 173 46 184 7
-64.133575 10.395701 -3.151938 173 46 184 7
-41.196564 -12.856146 -1.293372 173 46 184 7
33.183807 -91.589455 3.398034 173 46 184 7
-25.038273 -25.062790 -0.325235 173 46 184 7
84.621857 -91.081909 3.099395 173 46 184 7
4.377819 59.954502 -0.936751 173 46 184 7
53.211731 17.334068 5.879659 173 46 184 7
38.871887 55.186565 2.706719 173 46 184 7
36.766045 -101.899620 4.507721 173 46 184 7
4.435417 59.806580 -1.240423 173 46 184 7
-96.965454 28.446430 -1.779018 173 46 184 7
51.820526 68.895096 0.759916 173 46 184 7
52.951756 17.252686 6.258843 173 46 184 7
99.032448 -76.937157 1.147554 173 46 184 7
62.460972 -79.675087 3.555465 173 46 184 7
84.216896 47.643204 0.709599 173 46 184 7
84.310883 -91.631424 2.063906 173 46 184 7
81.829964 -39.594704 4.557188 173 46 184 7
21.458212 -65.507904 2.200623 173 46 184 7
37.004807 -101.985962 3.788673 173 46 184 7
-59.247787 24.105434 -4.262756 173 46 184 7
-85.085838 -21.217567 0.143626 173 46 184 7
82.559731 80.417198 -0.480191 173 46 184 7
10.461299 85.739197 0.482332 173 46 184 7
62.419628 -79.598709 4.147881 173 46 184 7
46.934788 108.953308 1.697807 173 46 184 7
-103.016205 15.730267 -0.952332 173 46 184 7
38.497406 55.974525 1.951983 173 46 184 7
4.119533 59.832630 -0.037402 173 46 184 7
38.669411 55.645077 2.484473 173 46 184 7
4.178413 59.749092 -0.839385 173 46 184 7
37.204967 -102.197433 3.825704 173 46 184 7
62.437984 -79.743309 3.855161 173 46 184 7
66.104324 -75.801987 4.352360 173 46 184 7
54.639698 -0.160715 7.516621 173 46 184 7
-26.935211 -98.971214 -0.814510 173 46 184 7
-70.978493 -35.479469 0.113983 173 46 184 7
-104.533348 96.182503 1.135525 173 46 184 7
18.857471 -71.659966 1.985441 173 46 184 7
18.947693 -71.982964 1.292691 173 46 184 7
8.721326 -91.298012 0.797599 173 46 184 7
108.848839 -92.063614 0.522603 173 46 184 7
32.064209 -102.495949 3.617570 173 46 184 7
-95.170135 -46.588692 2.236893 173 46 184 7
39.047951 88.952866 1.177243 173 46 184 7
-63.614475 -37.388763 -0.674648 173 46 184 7
109.072105 -91.836876 0.144344 173 46 184 7
-59.133766 24.021826 -4.504500 173 46 184 7
-41.462620 -11.902591 -1.709200 173 46 184 7
38.467861 54.985546 2.653488 173 46 184 7
-92.217133 17.460232 -1.310720 173 46 184 7
108.938934 -91.910416 1.276667 173 46 184 7
52.920971 17.541891 6.781959 173 46 184 7
-57.544189 -82.923630 -1.419411 173 46 184 7
107.347931 76.235664 -2.816380 173 46 184 7
-104.848183 96.243820 0.694039 173 46 184 7
-63.018959 -81.038795 -0.787136 173 46 184 7
-69.607689 -49.642662 -0.827850 173 46 184 7
107.416817 76.128548 -1.583371 173 46 184 7
69.541428 -91.351158 4.260895 173 46 184 7
-92.897652 16.465405 -1.418915 173 46 184 7
84.251961 -91.827858 3.115200 173 46 184 7
69.678947 -90.987938 4.325057 173 46 184 7
15.904075 -104.761230 2.710121 173 46 184 7
85.095459 -92.051811 2.900135 173 46 184 7
-65.030716 83.422821 -2.575484 173 46 184 7
-63.645657 -37.561447 -0.918287 173 46 184 7
-95.205086 -46.473705 0.935984 173 46 184 7
66.070236 -75.643196 3.481662 173 46 184 7
-96.872368 28.105225 -3.107180 173 46 184 7
-104.637878 95.816101 1.198526 173 46 184 7
99.420822 -76.879646 1.899748 173 46 184 7
33.203281 -91.593658 3.130800 173 46 184 7
38.702137 55.087154 2.644953 173 46 184 7
-62.761925 -81.528183 -0.779770 173 46 184 7
84.248795 47.721310 0.200025 173 46 184 7
62.430321 -79.691780 4.116937 173 46 184 7
-112.677155 25.476969 -0.523507 173 46 184 7
-63.053825 -81.345207 -1.077131 173 46 184 7
10.634205 85.414032 -0.233340 173 46 184 7
51.739716 68.916893 0.660647 173 46 184 7
-103.580559 16.017548 -0.881557 173 46 184 7
84.207634 47.758728 0.565949 173 46 184 7
-84.986931 -21.049648 0.050106 173 46 184 7
51.884403 68.948982 1.533044 173 46 184 7
11.094543 85.553589 0.675683 173 46 184 7
45.218102 92.618706 1.142742 173 46 184 7
-69.681587 -49.826767 -1.464398 173 46 184 7
-42.832767 30.275135 -4.662480 173 46 184 7
-41.859444 -13.350760 -1.707199 173 46 184 7
39.409706 88.748993 0.488787 173 46 184 7
69.336258 -91.418648 2.969064 173 46 184 7
33.279133 -91.665260 3.192912 173 46 184 7
20.092281 -103.092422 3.808995 173 46 184 7
106.369087 107.580086 -1.034840 173 46 184 7
-69.897629 -49.830826 -0.413131 173 46 184 7
-41.120419 -12.050685 -1.884628 173 46 184 7
-57.297859 -82.631340 -2.460849 173 46 184 7
107.488365 75.981789 -2.747395 173 46 184 7
116.341217 103.960464 -0.979864 173 46 184 7
53.316380 17.136906 6.422902 173 46 184 7
16.003527 -104.326286 3.010064 173 46 184 7
98.891052 -76.376175 1.129956 173 46 184 7
109.273125 -91.935318 0.546217 173 46 184 7
-63.537598 -37.554646 -1.091261 173 46 184 7
109.058456 -91.877220 0.984634 173 46 184 7
-25.289886 -24.995504 -0.106683 173 46 184 7
66.025993 -75.732742 3.774772 173 46 184 7
32.096649 -102.100197 4.381194 173 46 184 7
54.663639 -0.387613 6.736703 173 46 184 7
16.050974 -104.644745 2.266091 173 46 184 7
-62.873161 -81.284309 -1.416196 173 46 184 7
46.947468 109.339439 1.487688 173 46 184 7
46.826424 109.163643 2.319393 173 46 184 7
51.840019 69.046394 0.943044 173 46 184 7
-0.394811 70.392105 -0.864884 173 46 184 7
-48.114658 92.587120 -1.794587 173 46 184 7
33.348732 -91.612686 2.968584 173 46 184 7
-105.141701 96.058228 1.730220 173 46 184 7
51.771263 69.075996 0.299572 173 46 184 7
81.884453 -39.738621 4.531078 173 46 184 7
-112.385269 24.404293 -0.155183 173 46 184 7
-63.547192 -37.461842 -0.785445 173 46 184 7
-103.372055 15.630679 -0.444038 173 46 184 7
32.332375 -102.298424 4.378312 173 46 184 7
19.590498 -71.686951 2.074218 173 46 184 7
-64.707100 83.380249 -2.660121 173 46 184 7
31.799377 -102.634567 4.568703 173 46 184 7
20.181623 -103.194359 3.822160 173 46 184 7
-108.924011 -55.598225 2.258699 173 46 184 7
51.878674 68.953674 0.943016 173 46 184 7
107.239143 76.182556 -1.779324 173 46 184 7
-108.994141 -55.645794 2.644317 173 46 184 7
116.717728 103.348763 -0.423806 173 46 184 7
30.546598 12.019135 6.552370 173 46 184 7
-84.701210 -21.236691 0.621881 173 46 184 7
54.962257 -0.262265 7.601293 173 46 184 7
-63.373810 -81.821213 -1.896249 173 46 184 7
-93.462074 16.809216 -2.097975 173 46 184 7
38.626663 55.629910 2.593477 173 46 184 7
54.885597 -0.399678 6.607154 173 46 184 7
8.800297 -91.147110 1.140389 173 46 184 7
38.731449 55.411903 1.664227 173 46 184 7
-108.998093 -55.475998 1.750122 173 46 184 7
18.925695 -71.344185 1.223696 173 46 184 7
54.934788 0.041645 7.400161 173 46 184 7
-103.511436 16.550182 -0.991311 173 46 184 7
0.159982 70.049072 -1.216056 173 46 184 7
46.944145 109.271294 2.450788 173 46 184 7
15.904977 -104.967697 2.437387 173 46 184 7
-69.730736 -49.756683 -0.544744 173 46 184 7
-96.967171 28.379816 -2.501898 173 46 184 7
-96.818481 28.048513 -2.748147 173 46 184 7
20.129484 -102.964333 2.725238 173 46 184 7
-112.480766 24.770128 -0.243828 173 46 184 7
15.952106 -104.687370 3.123014 173 46 184 7
82.403450 79.939011 -0.444461 173 46 184 7
-63.817600 10.347413 -3.165562 173 46 184 7
18.855488 -71.942505 1.383909 173 46 184 7
18.579962 -71.794914 0.801413 173 46 184 7
-94.742310 -46.654945 1.507618 173 46 184 7
0.799176 70.107239 -1.841927 173 46 184 7
109.017708 -92.187843 0.818494 173 46 184 7
33.182777 -91.592529 2.953462 173 46 184 7
39.120319 88.886818 1.401578 173 46 184 7
-103.454475 15.492856 -0.585248 173 46 184 7
-43.104710 29.535749 -5.034957 173 46 184 7
107.307327 76.603783 -2.676606 173 46 184 7
39.413017 55.540253 2.555191 173 46 184 7
31.829487 -102.030815 3.777475 173 46 184 7
-96.696281 28.361198 -2.571754 173 46 184 7
-103.660194 16.050964 -0.917274 173 46 184 7
46.898647 109.299034 1.908220 173 46 184 7
-96.853378 28.220221 -2.902935 173 46 184 7
30.381771 12.718321 5.709330 173 46 184 7
51.793633 68.933662 1.545516 173 46 184 7
54.643246 -0.337187 6.664391 173 46 184 7
107.388344 75.796822 -2.739810 173 46 184 7
31.940418 -102.169617 3.529850 173 46 184 7
-65.072166 83.023758 -3.257908 173 46 184 7
47.258595 110.178032 1.440989 173 46 184 7
44.418049 93.163300 1.051709 173 46 184 7
-112.713020 25.664927 -0.188968 173 46 184 7
106.014603 107.582382 -0.659859 173 46 184 7
-103.389755 15.885424 -0.231119 173 46 184 7
36.910282 -101.902885 4.718354 173 46 184 7
-84.187202 30.655720 -4.602219 173 46 184 7
100.061859 -76.478783 1.382111 173 46 184 7
108.828537 -91.888527 0.295707 173 46 184 7
51.798710 68.940399 0.797223 173 46 184 7
-47.638039 92.814507 -1.086255 173 46 184 7
108.930099 -91.852127 0.905904 173 46 184 7
33.159267 -91.491554 3.395807 173 46 184 7
62.458096 -79.651222 4.036816 173 46 184 7
-112.480461 24.742731 -0.360916 173 46 184 7
-63.311840 10.384775 -3.526239 173 46 184 7
10.613531 85.360641 0.113223 173 46 184 7
-84.991386 -21.297758 0.861988 173 46 184 7
-42.025536 -12.048163 -1.295424 173 46 184 7
62.462589 -79.728622 4.190382 173 46 184 7
106.812950 107.649765 -0.604013 173 46 184 7
20.190275 -103.095314 2.905112 173 46 184 7
9.029975 -91.078857 1.093407 173 46 184 7
37.717083 -102.205704 4.057022 173 46 184 7
-42.995415 29.770008 -4.896447 173 46 184 7
99.364601 -76.841316 1.218661 173 46 184 7
69.603027 -91.147652 2.975935 173 46 184 7
105.764565 107.593521 -1.023829 173 46 184 7
84.153465 47.672855 -0.121109 173 46 184 7
-96.836128 28.158688 -2.544869 173 46 184 7
37.097347 -102.042679 3.949863 173 46 184 7
-96.550652 27.919981 -2.757157 173 46 184 7
116.355675 104.277649 -1.210660 173 46 184 7
-25.741791 -24.984388 -0.241821 173 46 184 7
-108.885483 -55.398216 2.388633 173 46 184 7
-26.935915 -98.976341 -0.569518 173 46 184 7
51.724072 68.890015 1.086439 173 46 184 7
-63.137680 -81.530518 -1.239457 173 46 184 7
45.671432 92.463165 0.566490 173 46 184 7
21.090036 -65.599884 1.762038 173 46 184 7
-92.882919 17.631340 -2.450163 173 46 184 7
-41.819836 30.226713 -5.303338 173 46 184 7
21.545580 -65.119614 1.756525 173 46 184 7
33.225845 -91.628494 3.853750 173 46 184 7
66.055542 -75.497658 4.410618 173 46 184 7
99.764832 -77.048248 0.616142 173 46 184 7
106.404938 107.226646 0.250552 173 46 184 7
-62.879208 -81.368271 -0.904689 173 46 184 7
18.910126 -71.990158 1.769149 173 46 184 7
-26.227804 -25.466656 -0.386735 173 46 184 7
10.579797 85.449524 -0.351184 173 46 184 7
55.134609 -0.457187 7.720440 173 46 184 7
107.491180 76.463654 -2.738710 173 46 184 7
31.704052 -102.826187 3.548868 173 46 184 7
99.284645 -77.309120 1.005047 173 46 184 7
21.353952 -64.995277 2.237371 173 46 184 7
106.757591 107.714058 -0.416524 173 46 184 7
19.187187 -71.835175 1.488207 173 46 184 7
21.318113 -64.934120 1.509411 173 46 184 7
-103.833519 16.592730 0.196467 173 46 184 7
4.166415 59.503723 -1.303522 173 46 184 7
-59.341534 24.122374 -5.254354 173 46 184 7
-26.546988 -99.304359 -1.574699 173 46 184 7
107.314957 107.546677 -0.351821 173 46 184 7
-84.246613 30.534164 -4.264272 173 46 184 7
-69.798492 -49.852058 -1.609530 173 46 184 7
19.333834 -71.519211 1.169102 173 46 184 7
-71.920616 -34.357731 -0.877302 173 46 184 7
69.496223 -91.221748 3.324906 173 46 184 7
-84.179779 30.570673 -4.375722 173 46 184 7
106.306190 107.932945 -0.625619 173 46 184 7
4.069066 59.962528 -0.867664 173 46 184 7
106.488724 107.114738 -0.312104 173 46 184 7
20.101448 -103.225479 2.589059 173 46 184 7
-25.703333 -25.220648 -0.408185 173 46 184 7
-59.424004 24.133869 -5.155575 173 46 184 7
-104.297493 95.895447 1.072332 173 46 184 7
38.388962 55.341122 1.510460 173 46 184 7
-112.535362 25.183407 -0.025680 173 46 184 7
20.892691 -65.319450 2.429525 173 46 184 7
15.803050 -104.993629 3.098519 173 46 184 7
32.058910 -102.601372 3.989673 173 46 184 7
-97.135826 28.270199 -1.972126 173 46 184 7
4.513375 59.934345 -0.206156 173 46 184 7
66.084763 -75.620422 3.820074 173 46 184 7
33.280476 -91.541870 3.991618 173 46 184 7
-104.838295 95.725151 0.757968 173 46 184 7
-63.527439 -37.515797 -1.110638 173 46 184 7
19.139263 -71.474586 1.384946 173 46 184 7
-48.619938 92.627335 -1.498526 173 46 184 7
107.659752 76.026482 -2.492274 173 46 184 7
45.772438 92.833710 0.449039 173 46 184 7
38.310509 55.385769 1.963355 173 46 184 7
84.155418 47.731228 0.236731 173 46 184 7
-71.403992 -34.984222 -0.013309 173 46 184 7
46.907707 110.234665 2.133828 173 46 184 7
-25.859522 -25.885750 -1.010022 173 46 184 7
30.280565 11.791742 6.115601 173 46 184 7
-48.169670 93.042892 -0.763860 173 46 184 7
62.167400 -79.697021 3.333808 173 46 184 7
55.026413 -0.456537 6.745445 173 46 184 7
99.261520 -77.023148 1.917776 173 46 184 7
45.154156 93.234207 0.661901 173 46 184 7
0.213740 69.575951 -0.571214 173 46 184 7
33.216419 -91.621605 3.072548 173 46 184 7
4.577927 59.737991 -0.694193 173 46 184 7
10.386942 85.468094 0.252638 173 46 184 7
-108.881340 -55.477863 2.225403 173 46 184 7
84.391930 -91.763107 2.249005 173 46 184 7
-42.052681 29.227417 -4.544150 173 46 184 7
116.912659 104.029251 -1.048179 173 46 184 7
84.195801 47.611423 0.247101 173 46 184 7
-112.082489 25.088190 0.041862 173 46 184 7
39.147903 88.715401 0.780007 173 46 184 7
62.272076 -79.541679 3.454207 173 46 184 7
44.917110 92.485886 1.584267 173 46 184 7
10.700994 85.632378 -0.141570 173 46 184 7
20.078680 -103.093567 2.806962 173 46 184 7
37.450104 -101.915825 4.793248 173 46 184 7
-63.283241 -81.825302 -1.359540 173 46 184 7
81.880302 -39.701233 4.516248 173 46 184 7
44.628201 92.639420 1.247507 173 46 184 7
108.822113 -91.918022 1.157756 173 46 184 7
8.836524 -91.224800 1.518033 173 46 184 7
-63.815102 10.155825 -3.894296 173 46 184 7
39.026485 88.878922 0.634555 173 46 184 7
19.303293 -71.717346 1.258236 173 46 184 7
4.155414 60.213943 -0.791293 173 46 184 7
62.459511 -79.766655 4.348249 173 46 184 7
19.946871 -103.087906 2.793092 173 46 184 7
-64.128326 10.412604 -2.895584 173 46 184 7
0.049784 70.049255 -1.632183 173 46 184 7
37.190128 -102.385651 4.096267 173 46 184 7
4.307220 60.060040 -0.827014 173 46 184 7
21.095036 -65.072655 2.178842 173 46 184 7
15.945764 -104.600807 2.565247 173 46 184 7
-70.747711 -35.167572 -0.998421 173 46 184 7
55.063660 -0.105847 7.399951 173 46 184 7
-105.037933 95.570755 1.877240 173 46 184 7
39.312729 88.862892 0.998426 173 46 184 7
-25.353323 -24.979742 -0.683309 173 46 184 7
30.423613 11.717377 5.800339 173 46 184 7
30.393700 12.181639 6.926377 173 46 184 7
8.989265 -91.199608 1.237460 173 46 184 7
21.471598 -65.301392 2.048957 173 46 184 7
30.725046 12.044868 6.355886 173 46 184 7
46.835159 109.456596 1.242811 173 46 184 7
-97.003654 28.347473 -1.811008 173 46 184 7
-48.729565 92.269699 -1.808811 173 46 184 7
-63.373623 -81.372086 -1.693609 173 46 184 7
47.460552 109.954704 1.234152 173 46 184 7
10.718723 85.712341 0.674885 173 46 184 7
18.294090 -72.257721 1.363339 173 46 184 7
-108.887672 -55.487827 2.634770 173 46 184 7
-63.452087 -37.441776 -1.790370 173 46 184 7
-63.680382 -37.523594 -1.339563 173 46 184 7
-62.989616 -81.934166 -1.392004 173 46 184 7
66.039764 -75.565292 3.665620 173 46 184 7
46.604427 109.458504 2.301553 173 46 184 7
69.592552 -91.250000 3.216189 173 46 184 7
65.897995 -75.655540 4.293634 173 46 184 7
18.953033 -72.390778 0.881401 173 46 184 7
69.797554 -91.161148 3.364744 173 46 184 7
-63.583172 10.702716 -2.753602 173 46 184 7
-63.555912 -37.475533 -0.731627 173 46 184 7
39.222382 88.822388 0.553213 173 46 184 7
-104.919380 95.739929 1.871912 173 46 184 7
66.117920 -75.706558 3.437636 173 46 184 7
8.910289 -91.228935 0.792086 173 46 184 7
98.976875 -76.140015 0.686478 173 46 184 7
-57.625130 -82.760078 -2.063955 173 46 184 7
38.973728 88.839973 0.650959 173 46 184 7
-64.462944 83.685211 -1.807362 173 46 184 7
38.471703 55.490726 2.600737 173 46 184 7
84.632713 -91.596611 2.925314 173 46 184 7
51.818951 68.863007 0.914244 173 46 184 7
-69.742355 -49.884594 -0.783522 173 46 184 7
-47.997917 92.574844 -1.769900 173 46 184 7
39.209389 55.533470 1.824497 173 46 184 7
20.971941 -65.044441 1.817650 173 46 184 7
-63.675709 10.176836 -3.530777 173 46 184 7
8.737243 -91.643524 1.399202 173 46 184 7
18.796766 -72.024887 1.394008 173 46 184 7
53.016335 16.644497 6.141552 173 46 184 7
0.060310 70.678902 -1.850263 173 46 184 7
44.941193 92.461418 1.138281 173 46 184 7
4.514176 59.987045 -1.276480 173 46 184 7
-63.528976 -37.380630 -0.730813 173 46 184 7
-93.351257 16.664499 -1.175229 173 46 184 7
37.569656 -102.108078 3.666749 173 46 184 7
82.052528 -39.793270 3.884412 173 46 184 7
51.769718 69.025002 0.486743 173 46 184 7
62.434155 -79.716911 4.290452 173 46 184 7
66.114838 -75.650871 4.318091 173 46 184 7
-57.375374 -83.183701 -1.124727 173 46 184 7
-103.475143 15.998846 -0.841604 173 46 184 7
20.070610 -103.294693 2.485886 173 46 184 7
33.192677 -91.496445 2.991097 173 46 184 7
19.631683 -71.093582 2.263245 173 46 184 7
-64.872490 83.937798 -1.951150 173 46 184 7
36.954792 -102.194435 4.009932 173 46 184 7
69.080124 -90.914719 3.031057 173 46 184 7
38.722958 54.950500 1.585620 173 46 184 7
-93.431351 16.955519 -1.147567 173 46 184 7
8.836445 -91.638641 1.703263 173 46 184 7
-108.858948 -55.489445 2.276024 173 46 184 7
107.784325 76.254425 -2.436812 173 46 184 7
108.758118 -91.936592 0.977323 173 46 184 7
106.273109 107.422478 -0.792698 173 46 184 7
83.194702 79.865562 -1.239721 173 46 184 7
82.488625 79.921959 -1.152609 173 46 184 7
-103.848175 16.101959 -0.384222 173 46 184 7
-48.211971 92.779411 -1.225278 173 46 184 7
20.108618 -103.073090 3.059509 173 46 184 7
33.243446 -91.595146 3.015270 173 46 184 7
-95.278580 -46.993435 1.876957 173 46 184 7
-25.244291 -25.931070 -1.128108 173 46 184 7
-64.621521 83.191551 -2.339701 173 46 184 7
51.808666 68.963463 0.701420 173 46 184 7
-64.620590 83.690674 -2.866408 173 46 184 7
44.820518 92.586334 0.363482 173 46 184 7
-69.707047 -49.830151 -0.384673 173 46 184 7
84.672028 -91.480766 3.032571 173 46 184 7
-96.831329 27.881487 -2.097237 173 46 184 7
-57.294056 -82.838272 -1.795593 173 46 184 7
107.350517 76.254700 -2.212837 173 46 184 7
84.729218 -91.898628 2.327979 173 46 184 7
32.155937 -102.245049 3.792307 173 46 184 7
-96.973969 27.959169 -2.936673 173 46 184 7
-57.718376 -82.413704 -2.181651 173 46 184 7
0.513927 70.685455 -1.195122 173 46 184 7
54.694542 -0.133326 7.499794 173 46 184 7
-64.983749 83.634109 -3.052835 173 46 184 7
18.971096 -71.604988 2.071438 173 46 184 7
-103.128784 16.518597 -0.309483 173 46 184 7
-69.640175 -49.666439 -0.359837 173 46 184 7
33.205547 -91.478722 3.219434 173 46 184 7
53.108990 17.192257 5.595003 173 46 184 7
19.340660 -71.964828 1.904860 173 46 184 7
16.147043 -104.513870 2.943688 173 46 184 7
-112.473389 25.358593 -0.730941 173 46 184 7
-58.326656 -82.133476 -2.093380 173 46 184 7
55.315201 0.200506 7.461109 173 46 184 7
16.070269 -104.720016 3.459688 173 46 184 7
54.398804 -0.435949 7.482507 173 46 184 7
53.174789 17.026047 5.673450 173 46 184 7
116.116554 103.820114 -1.206237 173 46 184 7
4.375590 59.722271 -0.938243 173 46 184 7
53.119926 16.825056 5.817756 173 46 184 7
20.047546 -103.281738 3.641782 173 46 184 7
4.189583 59.704105 -0.744015 173 46 184 7
32.175354 -102.426811 3.618579 173 46 184 7
66.002769 -75.644981 3.760430 173 46 184 7
38.449245 55.508404 2.167543 173 46 184 7
