ply
format ascii 1.0
element vertex 1114
property float x
property float y
property float z
property uchar red
property uchar green
property uchar blue
property int label
end_header
50.153614 41.713295 3.649340 217 173 51 5
60.730118 31.830425 5.546413 217 173 51 5
-83.981094 45.400303 -4.960917 217 173 51 5
91.825623 27.557611 0.723961 217 173 51 5
60.725498 31.975935 6.159186 217 173 51 5
-102.735458 -102.379181 2.522068 217 173 51 5
-102.621323 -102.433472 2.499188 217 173 51 5
18.469553 -35.383446 3.628252 217 173 51 5
-83.319328 44.292286 -4.786471 217 173 51 5
-83.970001 45.655457 -5.196924 217 173 51 5
-1.572143 68.643555 -1.769653 217 173 51 5
-2.196233 70.105888 -1.678224 217 173 51 5
49.466442 41.932274 3.212919 217 173 51 5
60.881847 31.913080 6.175035 217 173 51 5
47.356575 93.101868 4.111887 217 173 51 5
47.550446 93.043983 3.855879 217 173 51 5
30.108747 -20.190964 8.986400 217 173 51 5
49.738461 41.889149 3.075960 217 173 51 5
49.519711 91.398933 1.530553 217 173 51 5
18.811241 -35.851479 3.444874 217 173 51 5
18.774332 -35.817314 3.471702 217 173 51 5
47.868866 92.742973 5.099042 217 173 51 5
19.225460 -34.043800 3.477617 217 173 51 5
60.478630 32.059589 5.676656 217 173 51 5
107.168373 -95.497131 1.483127 217 173 51 5
60.838898 31.845867 6.348704 217 173 51 5
49.610592 91.472778 3.411791 217 173 51 5
60.805019 31.909996 5.220838 217 173 51 5
-1.612645 68.602608 -1.788790 217 173 51 5
-83.576645 43.746830 -4.268628 217 173 51 5
18.864338 -35.498207 3.113940 217 173 51 5
49.766582 41.889389 2.800654 217 173 51 5
-120.888428 89.798912 0.813012 217 173 51 5
-119.389870 75.753838 0.816522 217 173 51 5
19.204884 -33.947887 3.783114 217 173 51 5
-1.584331 68.653961 -2.058156 217 173 51 5
60.844654 31.889479 5.994247 217 173 51 5
18.677214 -34.973438 3.839871 217 173 51 5
92.383057 28.101658 0.415428 217 173 51 5
99.510353 -85.799149 1.976388 217 173 51 5
93.311562 27.272709 0.806830 217 173 51 5
3.269874 88.608200 -0.696681 217 173 51 5
47.839298 92.665627 5.114548 217 173 51 5
100.926918 -87.594322 1.877869 217 173 51 5
-1.405808 68.762482 -1.863548 217 173 51 5
18.873554 -35.445961 3.080212 217 173 51 5
-82.327126 45.581917 -5.484419 217 173 51 5
-2.114466 70.098015 -1.592162 217 173 51 5
-102.542580 -101.606911 2.210075 217 173 51 5
0.909164 90.450348 -0.000299 217 173 51 5
19.272200 -34.060108 3.575243 217 173 51 5
49.758026 41.915970 2.797643 217 173 51 5
-102.484879 -101.539505 2.052708 217 173 51 5
106.652115 -94.862244 1.064447 217 173 51 5
98.751747 -84.798256 0.999210 217 173 51 5
31.637974 -20.464945 9.084761 217 173 51 5
19.648970 -33.828987 3.784481 217 173 51 5
19.388962 -34.564461 3.701211 217 173 51 5
18.811823 -35.459812 3.450928 217 173 51 5
101.123779 -87.797379 1.803027 217 173 51 5
19.742981 -33.852478 3.739124 217 173 51 5
51.158794 41.747494 2.946531 217 173 51 5
60.721638 31.836851 4.037136 217 173 51 5
19.272097 -34.061131 3.659262 217 173 51 5
2.426875 91.850899 0.219921 217 173 51 5
18.870718 -35.446785 3.283744 217 173 51 5
60.927006 31.846493 6.164228 217 173 51 5
19.633137 -33.796867 3.788237 217 173 51 5
19.239511 -33.748600 3.738596 217 173 51 5
-2.303950 69.715851 -1.985826 217 173 51 5
-2.074973 69.886162 -1.357764 217 173 51 5
47.708954 92.699280 3.887381 217 173 51 5
48.994396 91.797768 5.080925 217 173 51 5
18.684784 -35.364937 3.055391 217 173 51 5
-102.108521 -101.924545 2.125477 217 173 51 5
50.329895 41.960720 3.184619 217 173 51 5
-1.928531 69.177841 -1.683123 217 173 51 5
-2.312326 69.711327 -1.810639 217 173 51 5
92.880951 26.807487 0.461513 217 173 51 5
19.451059 -34.101803 3.269549 217 173 51 5
-113.832573 54.646000 -0.932029 217 173 51 5
100.575417 -87.095963 1.428317 217 173 51 5
-2.005855 69.758102 -1.423257 217 173 51 5
51.054790 41.589016 3.162589 217 173 51 5
19.501780 -34.098770 3.608997 217 173 51 5
19.419872 -34.137779 3.262295 217 173 51 5
60.778107 31.918495 5.647825 217 173 51 5
60.499458 31.986752 5.251987 217 173 51 5
19.226879 -34.037628 3.405774 217 173 51 5
51.056061 41.643719 2.818624 217 173 51 5
-83.070404 44.562798 -4.696426 217 173 51 5
-1.719942 69.369987 -1.611185 217 173 51 5
-1.261154 68.505249 -1.588571 217 173 51 5
49.673710 91.346123 4.121096 217 173 51 5
-81.900429 45.244740 -5.343524 217 173 51 5
18.811766 -35.473793 3.489080 217 173 51 5
19.327438 -33.994473 3.679228 217 173 51 5
-81.336792 46.717209 -5.437820 217 173 51 5
107.825317 -96.310646 1.120767 217 173 51 5
-2.026456 69.620605 -1.676954 217 173 51 5
1.739968 88.094902 -0.878555 217 173 51 5
19.408201 -34.056133 3.674343 217 173 51 5
19.130093 -33.946083 3.645064 217 173 51 5
3.448794 90.815697 0.171334 217 173 51 5
18.659937 -35.782230 3.478751 217 173 51 5
47.346825 92.856804 3.643776 217 173 51 5
18.821238 -35.467529 3.063520 217 173 51 5
51.478870 41.833374 3.189143 217 173 51 5
18.860178 -34.620342 3.546094 217 173 51 5
-81.051605 49.056259 -5.681907 217 173 51 5
19.299046 -33.657387 4.073639 217 173 51 5
-2.273440 69.679176 -2.064417 217 173 51 5
47.579063 93.008148 3.511033 217 173 51 5
18.985062 -34.381344 3.617112 217 173 51 5
-83.841125 45.408310 -4.978287 217 173 51 5
60.743877 31.815546 5.802270 217 173 51 5
18.845245 -35.419903 3.099962 217 173 51 5
49.693039 91.347084 4.015734 217 173 51 5
-83.931747 43.697029 -4.273572 217 173 51 5
18.960846 -34.517170 3.653478 217 173 51 5
-1.463702 68.993225 -1.386937 217 173 51 5
-2.101556 69.819794 -1.705095 217 173 51 5
51.168865 41.929329 3.188517 217 173 51 5
61.107243 31.788559 5.611245 217 173 51 5
61.069973 31.795835 6.154456 217 173 51 5
19.582535 -33.780422 3.771355 217 173 51 5
18.604952 -35.407135 3.442492 217 173 51 5
51.380207 41.459686 3.225070 217 173 51 5
60.489510 31.999914 5.891684 217 173 51 5
60.765087 31.855595 7.358472 217 173 51 5
19.313789 -33.767681 3.774438 217 173 51 5
47.305592 93.041771 5.148117 217 173 51 5
2.576096 89.870377 0.067586 217 173 51 5
99.325233 -85.506020 1.397111 217 173 51 5
-81.627983 45.555920 -5.363399 217 173 51 5
19.611782 -33.800995 3.733416 217 173 51 5
-102.534195 -101.609253 1.721640 217 173 51 5
19.491167 -34.081219 3.542122 217 173 51 5
-1.624936 68.660591 -1.953151 217 173 51 5
51.029068 41.461109 3.216821 217 173 51 5
49.490314 41.845585 3.278311 217 173 51 5
18.597000 -35.378658 3.154528 217 173 51 5
-84.265556 46.013210 -5.136945 217 173 51 5
18.859581 -34.985569 3.584146 217 173 51 5
51.132797 41.747280 3.191341 217 173 51 5
60.901505 31.825144 5.807686 217 173 51 5
-120.641792 83.974724 0.779939 217 173 51 5
-2.206020 69.772636 -1.705828 217 173 51 5
60.706753 31.853756 3.837785 217 173 51 5
51.167152 41.743721 2.784984 217 173 51 5
19.263866 -33.636581 4.011865 217 173 51 5
60.489468 32.059624 6.129315 217 173 51 5
18.836042 -35.430542 3.068837 217 173 51 5
-83.863625 44.713879 -4.600663 217 173 51 5
-83.146904 46.109406 -5.411539 217 173 51 5
-102.759979 -102.405663 2.525846 217 173 51 5
49.829918 42.080147 3.186841 217 173 51 5
61.079845 31.767149 5.527254 217 173 51 5
60.796383 31.942762 6.635453 217 173 51 5
49.449196 41.846783 3.252241 217 173 51 5
-1.318154 68.483368 -1.620786 217 173 51 5
-1.425006 68.775833 -1.636694 217 173 51 5
-102.569824 -102.524612 2.347160 217 173 51 5
18.537451 -35.365452 3.873501 217 173 51 5
100.579239 -87.088554 1.102945 217 173 51 5
-102.512383 -101.606331 1.864117 217 173 51 5
-84.330185 45.361477 -5.028967 217 173 51 5
19.303532 -33.992393 3.472009 217 173 51 5
-84.336227 44.209015 -4.380116 217 173 51 5
-85.011215 44.805286 -4.654030 217 173 51 5
18.611425 -35.399189 3.161041 217 173 51 5
-83.030037 45.997860 -5.395667 217 173 51 5
-83.080849 45.769524 -5.530401 217 173 51 5
-83.295128 44.272453 -4.795183 217 173 51 5
19.274170 -33.678829 3.756673 217 173 51 5
101.906143 -88.799477 1.641616 217 173 51 5
19.027637 -35.000729 3.551576 217 173 51 5
18.686075 -35.365803 3.055477 217 173 51 5
18.520357 -35.719395 3.469366 217 173 51 5
-1.233303 68.638222 -1.602712 217 173 51 5
18.646885 -35.028732 3.718945 217 173 51 5
-102.993874 -102.172226 2.359669 217 173 51 5
61.086811 31.754110 5.605962 217 173 51 5
-2.215526 69.456902 -1.626152 217 173 51 5
-2.226451 69.727600 -2.115924 217 173 51 5
-1.425215 68.774879 -1.647818 217 173 51 5
-82.123489 44.607155 -4.934149 217 173 51 5
47.355907 93.186661 3.888640 217 173 51 5
2.732344 90.362686 -0.793485 217 173 51 5
51.124428 41.770744 3.185569 217 173 51 5
3.201341 48.150398 -0.819610 217 173 51 5
-83.659966 44.924557 -4.818760 217 173 51 5
18.411356 -35.661896 3.766059 217 173 51 5
19.235788 -34.918999 3.626456 217 173 51 5
18.696814 -35.351562 3.058176 217 173 51 5
61.077480 31.737402 6.130744 217 173 51 5
-102.590263 -102.473434 2.441874 217 173 51 5
51.151924 41.797695 2.775716 217 173 51 5
-117.941681 77.256042 0.823868 217 173 51 5
47.535236 92.936226 5.148535 217 173 51 5
47.398762 92.976433 3.692637 217 173 51 5
-2.225611 70.080231 -1.673212 217 173 51 5
107.871048 -96.389259 1.136695 217 173 51 5
18.971312 -35.541573 3.483032 217 173 51 5
-1.909423 69.610748 -1.685017 217 173 51 5
-84.784714 45.781807 -4.893396 217 173 51 5
47.422146 93.020004 3.617987 217 173 51 5
18.616323 -35.334435 3.175942 217 173 51 5
-84.323334 44.639999 -4.569670 217 173 51 5
19.226728 -34.074272 3.660142 217 173 51 5
60.746380 31.886932 6.154457 217 173 51 5
-102.989471 -102.227623 2.180061 217 173 51 5
3.250191 88.485199 -0.255598 217 173 51 5
60.724869 31.830414 5.780285 217 173 51 5
18.704426 -35.073914 3.735187 217 173 51 5
19.054979 -34.033173 3.793228 217 173 51 5
103.858284 -91.258492 0.778449 217 173 51 5
50.581459 41.585331 3.283229 217 173 51 5
49.452702 41.869007 3.557927 217 173 51 5
18.860317 -35.502693 3.065309 217 173 51 5
3.384476 89.829063 -0.560490 217 173 51 5
50.067375 41.826366 3.205371 217 173 51 5
47.615784 92.986053 3.544295 217 173 51 5
-82.819138 45.837090 -5.415404 217 173 51 5
47.718342 92.713722 3.519098 217 173 51 5
-2.134225 69.816246 -1.698864 217 173 51 5
-120.156883 87.082886 0.817711 217 173 51 5
19.391895 -34.417057 3.749197 217 173 51 5
-1.645082 68.650543 -1.956741 217 173 51 5
-102.654579 -102.430199 2.513688 217 173 51 5
19.447462 -33.707836 3.768600 217 173 51 5
93.321358 27.240631 0.572459 217 173 51 5
60.704758 31.937984 6.170628 217 173 51 5
-82.820412 43.727688 -4.533077 217 173 51 5
49.569714 91.445251 1.518794 217 173 51 5
49.804848 42.125065 2.895260 217 173 51 5
19.429623 -34.140305 3.673338 217 173 51 5
-1.405464 68.424164 -1.586336 217 173 51 5
31.322027 -20.303932 9.088326 217 173 51 5
60.561020 31.961504 5.371655 217 173 51 5
49.603756 91.472145 4.365849 217 173 51 5
49.737434 41.892914 3.016761 217 173 51 5
49.850559 41.739155 3.390039 217 173 51 5
49.871067 42.079399 2.953232 217 173 51 5
-2.115279 69.910500 -1.609418 217 173 51 5
-82.469040 43.785351 -4.554365 217 173 51 5
18.901739 -34.621582 3.878860 217 173 51 5
19.268681 -33.653362 4.025803 217 173 51 5
-2.006132 69.048233 -1.689316 217 173 51 5
92.155853 27.247215 0.518311 217 173 51 5
47.725773 92.854942 3.901758 217 173 51 5
60.760452 31.902800 7.347218 217 173 51 5
18.680222 -35.413761 3.123534 217 173 51 5
60.840237 31.887959 3.521934 217 173 51 5
49.660801 91.374229 6.129611 217 173 51 5
18.652937 -35.761894 3.420692 217 173 51 5
-1.406189 68.408470 -1.599363 217 173 51 5
19.058876 -35.335629 3.555778 217 173 51 5
105.991791 -94.013206 0.818274 217 173 51 5
-83.220779 45.385277 -5.042954 217 173 51 5
100.540932 -87.065819 1.579455 217 173 51 5
50.278316 41.694351 3.223143 217 173 51 5
-85.223793 45.265236 -4.798739 217 173 51 5
51.098896 41.485466 3.235771 217 173 51 5
60.808517 31.850237 5.332513 217 173 51 5
19.393885 -34.105923 3.321065 217 173 51 5
-84.193176 44.913883 -4.835422 217 173 51 5
48.161877 92.429558 5.134405 217 173 51 5
-1.398275 68.782524 -1.766531 217 173 51 5
60.474899 32.058773 5.770654 217 173 51 5
50.640839 41.623188 3.498836 217 173 51 5
1.473591 90.339844 -0.858362 217 173 51 5
51.108685 41.579960 2.981818 217 173 51 5
19.332197 -33.673470 3.731924 217 173 51 5
-82.691055 44.946110 -5.083775 217 173 51 5
18.372290 -35.644657 3.598748 217 173 51 5
-2.084966 69.823677 -1.688060 217 173 51 5
50.971611 41.973129 3.239319 217 173 51 5
-84.199867 45.996590 -5.128903 217 173 51 5
102.948631 -90.100563 1.299650 217 173 51 5
18.724752 -34.954201 3.555038 217 173 51 5
61.117752 31.730320 5.487421 217 173 51 5
60.927952 31.865797 5.238253 217 173 51 5
18.634127 -35.397247 3.371164 217 173 51 5
49.364166 91.540009 5.047606 217 173 51 5
19.472616 -33.723473 3.713976 217 173 51 5
-2.099368 69.539665 -1.628308 217 173 51 5
51.446877 41.783493 3.221111 217 173 51 5
-102.562431 -102.511391 2.099885 217 173 51 5
18.829508 -35.490231 3.478934 217 173 51 5
60.672188 31.957102 6.174625 217 173 51 5
19.445742 -34.136036 3.310968 217 173 51 5
-82.544121 44.066288 -4.763954 217 173 51 5
60.804920 31.910477 6.426054 217 173 51 5
18.799244 -35.460812 3.472704 217 173 51 5
3.610513 92.439278 -0.223285 217 173 51 5
-1.315823 68.470329 -1.581990 217 173 51 5
49.544724 91.413330 2.999271 217 173 51 5
-82.216202 45.114143 -5.349590 217 173 51 5
-1.422769 68.816650 -2.054456 217 173 51 5
-1.453575 68.782265 -1.661633 217 173 51 5
-85.388275 44.617859 -4.296532 217 173 51 5
50.462650 42.010849 3.172425 217 173 51 5
106.387619 -94.426453 0.952909 217 173 51 5
101.298653 -88.032639 1.829155 217 173 51 5
49.779129 42.077755 3.274254 217 173 51 5
18.676313 -35.370075 3.465225 217 173 51 5
49.650173 91.313866 5.053466 217 173 51 5
1.360737 88.907669 -0.046987 217 173 51 5
-80.666306 51.456146 -4.803194 217 173 51 5
19.436520 -34.144489 3.628551 217 173 51 5
19.171795 -33.916924 3.739452 217 173 51 5
-81.049522 47.496727 -4.664336 217 173 51 5
50.975494 41.490398 3.660982 217 173 51 5
101.379738 -88.091072 0.716837 217 173 51 5
60.807690 31.909977 4.490833 217 173 51 5
-1.447632 68.756607 -1.943481 217 173 51 5
18.625813 -35.397846 3.390468 217 173 51 5
60.824093 31.865803 4.142940 217 173 51 5
-2.098621 69.877037 -1.922467 217 173 51 5
51.095787 41.776245 2.903267 217 173 51 5
-82.355972 44.552143 -4.919102 217 173 51 5
3.443276 92.337303 -0.619097 217 173 51 5
104.934608 -92.665863 1.585929 217 173 51 5
-1.844053 68.795578 -1.640380 217 173 51 5
18.613306 -35.380989 3.044683 217 173 51 5
-82.087158 45.307106 -5.350327 217 173 51 5
19.125666 -34.232456 3.602959 217 173 51 5
18.808559 -35.488846 3.167871 217 173 51 5
-1.440849 68.767921 -1.654997 217 173 51 5
19.291098 -34.040081 3.270192 217 173 51 5
47.813820 92.833450 3.548707 217 173 51 5
19.269180 -34.060562 3.648881 217 173 51 5
-82.507095 44.332367 -4.742029 217 173 51 5
19.355974 -33.694016 3.697584 217 173 51 5
-1.648004 68.675987 -1.765627 217 173 51 5
106.726974 -94.907906 1.454728 217 173 51 5
47.735081 92.761093 3.440679 217 173 51 5
-2.277024 69.710114 -1.708579 217 173 51 5
18.909830 -34.629108 3.886135 217 173 51 5
98.702698 -84.760406 1.591764 217 173 51 5
-1.247963 68.520515 -1.604167 217 173 51 5
2.116737 91.135147 -0.769154 217 173 51 5
50.345570 41.715019 3.475813 217 173 51 5
49.755264 41.911343 2.959529 217 173 51 5
19.235682 -33.798786 3.774821 217 173 51 5
47.754181 92.828270 3.392363 217 173 51 5
0.703693 88.200211 -0.212045 217 173 51 5
49.829792 42.051765 3.186077 217 173 51 5
-83.481567 43.549767 -4.341172 217 173 51 5
98.827309 -84.911110 1.584554 217 173 51 5
-122.664139 90.156296 1.391204 217 173 51 5
104.070786 -91.553345 0.805674 217 173 51 5
18.610256 -35.399548 3.274321 217 173 51 5
51.395042 41.502548 3.278229 217 173 51 5
101.766472 -88.651970 1.392128 217 173 51 5
49.647346 91.306053 2.325830 217 173 51 5
19.262852 -33.654209 3.917743 217 173 51 5
60.629414 32.033653 5.244926 217 173 51 5
60.761230 31.868586 7.359099 217 173 51 5
104.198158 -91.710136 1.255131 217 173 51 5
60.686886 31.918325 5.229713 217 173 51 5
-102.985100 -102.190933 2.476507 217 173 51 5
3.405829 47.792755 2.775984 217 173 51 5
107.852043 -96.341797 1.162242 217 173 51 5
18.500986 -35.319534 3.457780 217 173 51 5
-102.637009 -102.521362 1.849077 217 173 51 5
109.692940 -98.641296 0.867157 217 173 51 5
-1.228698 68.539757 -1.564694 217 173 51 5
93.068481 28.271978 0.581972 217 173 51 5
61.101467 31.752209 5.520158 217 173 51 5
93.080460 27.575140 1.434619 217 173 51 5
19.271456 -34.064213 3.307762 217 173 51 5
-2.180094 70.115311 -1.444584 217 173 51 5
-83.654442 45.726959 -5.165052 217 173 51 5
-1.653811 68.515045 -1.670294 217 173 51 5
60.812870 31.852133 5.673355 217 173 51 5
1.999810 92.913834 -0.074483 217 173 51 5
2.375967 90.824326 0.135424 217 173 51 5
-2.401820 69.715118 -1.687593 217 173 51 5
-83.287132 45.843414 -5.424983 217 173 51 5
18.950079 -35.598156 3.540506 217 173 51 5
51.286983 41.489647 3.276386 217 173 51 5
18.661942 -35.085850 3.475907 217 173 51 5
18.444433 -35.665977 3.598066 217 173 51 5
49.488297 41.978485 3.270299 217 173 51 5
-84.212830 45.308353 -4.758201 217 173 51 5
-102.706970 -102.427948 2.519645 217 173 51 5
-102.372147 -101.707741 2.491889 217 173 51 5
49.328453 91.570702 5.104472 217 173 51 5
50.974045 41.505722 3.231288 217 173 51 5
92.953339 27.490486 1.448682 217 173 51 5
-102.683464 -102.426384 2.517328 217 173 51 5
19.265827 -34.054573 3.568913 217 173 51 5
47.392841 92.857117 3.962402 217 173 51 5
3.283093 88.785606 -0.065020 217 173 51 5
60.835987 31.833124 4.384304 217 173 51 5
51.046822 41.590412 2.803706 217 173 51 5
18.477350 -35.461109 3.482525 217 173 51 5
18.413860 -35.654438 3.561631 217 173 51 5
60.478466 32.070347 5.658001 217 173 51 5
18.647873 -35.370979 3.050069 217 173 51 5
-82.160400 44.330704 -5.124436 217 173 51 5
60.810253 31.813055 3.910071 217 173 51 5
60.712254 31.880466 4.517222 217 173 51 5
60.791359 31.927549 6.809476 217 173 51 5
1.051537 88.181641 -0.447754 217 173 51 5
-1.892194 69.652992 -1.678044 217 173 51 5
49.857540 42.147530 2.767386 217 173 51 5
-2.309937 69.692947 -2.078680 217 173 51 5
108.279953 -96.878426 0.860282 217 173 51 5
18.965588 -34.366966 3.608641 217 173 51 5
49.813301 42.148640 2.952150 217 173 51 5
51.421619 41.729332 3.227438 217 173 51 5
-2.193765 70.129669 -1.583190 217 173 51 5
18.825506 -35.420071 3.073511 217 173 51 5
107.871376 -96.365089 0.894091 217 173 51 5
51.110207 41.569847 3.130722 217 173 51 5
61.115501 31.791370 5.318987 217 173 51 5
2.866133 88.026535 -0.259736 217 173 51 5
19.288120 -33.989368 3.305588 217 173 51 5
0.658495 88.617943 -0.382925 217 173 51 5
19.458025 -34.153072 3.569426 217 173 51 5
1.945245 56.897129 0.741137 217 173 51 5
49.585011 41.891209 3.208473 217 173 51 5
60.737564 31.906385 5.764931 217 173 51 5
-82.613922 44.857681 -5.163755 217 173 51 5
-85.241203 44.873100 -4.539343 217 173 51 5
-2.125029 69.814316 -2.091393 217 173 51 5
-83.970825 45.084892 -4.787687 217 173 51 5
47.329243 93.171227 3.610858 217 173 51 5
60.718403 31.892260 5.549347 217 173 51 5
18.858803 -35.493839 3.475602 217 173 51 5
-1.918323 69.562599 -1.684297 217 173 51 5
-118.121529 74.328430 0.858587 217 173 51 5
2.173234 88.074455 -0.902871 217 173 51 5
-2.222626 69.705124 -1.716698 217 173 51 5
50.813206 41.530308 3.641096 217 173 51 5
18.824368 -35.428837 3.217962 217 173 51 5
19.037920 -34.165836 3.794915 217 173 51 5
18.797581 -35.455635 3.061569 217 173 51 5
-102.858276 -102.304268 2.522191 217 173 51 5
18.369036 -35.646042 3.555489 217 173 51 5
-1.574885 68.625977 -2.070921 217 173 51 5
19.281176 -34.063881 3.503434 217 173 51 5
18.957905 -34.438732 3.637839 217 173 51 5
49.876083 42.088982 3.182766 217 173 51 5
47.396557 92.965141 3.982276 217 173 51 5
19.145676 -35.175777 3.596936 217 173 51 5
-1.556249 68.670715 -1.674625 217 173 51 5
-83.067497 44.433640 -4.684406 217 173 51 5
19.668856 -33.962341 3.725036 217 173 51 5
60.690453 31.925413 5.403840 217 173 51 5
18.472563 -35.481319 3.478942 217 173 51 5
18.630903 -35.394657 3.475479 217 173 51 5
-102.106926 -101.916489 2.387997 217 173 51 5
-2.000151 69.670227 -1.677392 217 173 51 5
-1.538950 68.822624 -1.656481 217 173 51 5
19.438698 -33.710468 3.745884 217 173 51 5
18.820988 -35.433235 3.155370 217 173 51 5
100.571762 -87.099945 1.111537 217 173 51 5
51.399837 41.553406 3.281338 217 173 51 5
91.868477 27.343821 1.130744 217 173 51 5
47.251816 93.139938 3.753807 217 173 51 5
60.805115 31.883022 6.173765 217 173 51 5
19.335072 -33.671165 3.730714 217 173 51 5
-2.280931 69.759903 -2.032518 217 173 51 5
51.107456 41.624420 2.973504 217 173 51 5
-1.250193 68.527222 -1.507480 217 173 51 5
-1.853045 69.479401 -1.648696 217 173 51 5
-1.841441 68.916168 -1.690251 217 173 51 5
18.424221 -35.604637 3.415382 217 173 51 5
47.526131 92.779678 3.518872 217 173 51 5
92.352829 28.433113 0.457949 217 173 51 5
-83.633110 45.557800 -5.236081 217 173 51 5
-114.473228 66.717949 1.945869 217 173 51 5
51.402485 41.863327 3.170648 217 173 51 5
-102.112434 -101.961311 1.797765 217 173 51 5
49.531151 91.422600 5.976256 217 173 51 5
19.343042 -33.660351 4.113534 217 173 51 5
50.488598 41.667130 3.210119 217 173 51 5
19.308575 -34.001606 3.620219 217 173 51 5
-102.082924 -101.900398 2.197256 217 173 51 5
18.786184 -35.492390 3.194713 217 173 51 5
49.829018 42.097019 2.774145 217 173 51 5
51.310913 41.394211 3.614898 217 173 51 5
-2.350533 69.980331 -1.718394 217 173 51 5
49.656437 91.448395 0.828131 217 173 51 5
-82.529320 43.283901 -4.457461 217 173 51 5
49.812191 41.897423 3.195787 217 173 51 5
51.463261 41.795177 3.205801 217 173 51 5
-82.498436 45.180389 -5.409203 217 173 51 5
-84.214897 45.962181 -5.139004 217 173 51 5
60.484806 32.043758 5.676240 217 173 51 5
-2.049811 69.827431 -1.835131 217 173 51 5
-82.057632 44.447140 -4.964741 217 173 51 5
19.416931 -34.066704 3.268420 217 173 51 5
-83.142197 46.121529 -5.426618 217 173 51 5
18.407745 -35.574413 3.766870 217 173 51 5
-82.347939 44.914288 -5.110564 217 173 51 5
-102.884262 -102.283737 2.521369 217 173 51 5
-102.516441 -101.577507 2.065849 217 173 51 5
60.758980 31.799150 5.551508 217 173 51 5
1.336297 92.975006 0.135993 217 173 51 5
-1.936378 69.529488 -1.684214 217 173 51 5
19.128872 -34.918514 3.557037 217 173 51 5
49.675266 91.438065 4.135211 217 173 51 5
-2.290364 69.682205 -1.772446 217 173 51 5
-83.905548 45.393993 -4.969770 217 173 51 5
49.576351 91.301270 2.170243 217 173 51 5
19.129086 -33.865150 3.966688 217 173 51 5
18.469969 -35.687473 3.477875 217 173 51 5
0.912779 91.483353 -0.576326 217 173 51 5
18.866529 -35.433453 3.415135 217 173 51 5
18.720901 -35.806763 3.521177 217 173 51 5
18.828993 -35.422298 3.079957 217 173 51 5
1.969251 58.410778 1.468840 217 173 51 5
102.418526 -89.421471 0.922232 217 173 51 5
60.772739 31.781904 4.890474 217 173 51 5
18.654741 -35.400253 3.048256 217 173 51 5
-1.440667 68.737724 -1.649536 217 173 51 5
47.232212 93.161560 4.014605 217 173 51 5
19.179287 -33.847775 3.670535 217 173 51 5
18.858631 -34.765251 3.635072 217 173 51 5
99.157112 -85.281532 1.410700 217 173 51 5
102.261543 -89.257286 1.203144 217 173 51 5
-102.123703 -101.935394 2.258044 217 173 51 5
49.862061 42.141914 3.002470 217 173 51 5
-83.023499 43.893272 -4.495893 217 173 51 5
51.127907 41.740845 3.186493 217 173 51 5
-1.404652 68.781975 -1.840216 217 173 51 5
-102.371254 -101.688683 2.507470 217 173 51 5
-84.080139 44.434689 -4.415761 217 173 51 5
47.367195 93.198997 4.074503 217 173 51 5
-2.227964 69.714165 -1.713629 217 173 51 5
106.057343 -94.038124 0.422836 217 173 51 5
51.146332 41.811604 2.992513 217 173 51 5
19.401096 -34.120815 3.337711 217 173 51 5
-102.990776 -102.192131 2.134315 217 173 51 5
-1.395676 68.427002 -1.574183 217 173 51 5
51.063572 41.626671 3.217749 217 173 51 5
60.843246 31.888296 4.969846 217 173 51 5
100.047729 -86.443306 1.843056 217 173 51 5
18.815611 -35.455254 3.106476 217 173 51 5
19.251490 -34.930984 3.627358 217 173 51 5
-2.299061 69.702080 -1.721694 217 173 51 5
1.512264 91.650459 0.125528 217 173 51 5
19.439779 -34.135826 3.571084 217 173 51 5
-2.209977 69.398987 -1.666730 217 173 51 5
-2.001432 69.812012 -1.685827 217 173 51 5
19.466125 -34.414307 3.690102 217 173 51 5
47.688972 92.695862 3.871028 217 173 51 5
-2.256520 69.755135 -1.977119 217 173 51 5
51.104435 41.551754 3.141617 217 173 51 5
-1.559514 69.115486 -1.226911 217 173 51 5
-82.654724 44.554260 -4.886716 217 173 51 5
-84.123795 45.770916 -5.116829 217 173 51 5
18.969467 -34.378620 3.632181 217 173 51 5
49.459663 41.888390 3.420124 217 173 51 5
19.320898 -34.262753 3.716704 217 173 51 5
18.443052 -35.669834 3.444476 217 173 51 5
50.450603 42.112961 3.206184 217 173 51 5
60.794102 31.793739 6.891976 217 173 51 5
61.003742 31.882879 5.439879 217 173 51 5
51.028397 41.511848 3.320598 217 173 51 5
19.516853 -33.751087 3.752961 217 173 51 5
-1.417718 68.778336 -1.926972 217 173 51 5
-1.413821 68.767685 -1.637826 217 173 51 5
51.135445 41.581669 3.009881 217 173 51 5
-1.611406 68.415375 -1.628664 217 173 51 5
49.696533 91.397629 3.796866 217 173 51 5
106.687859 -94.872093 1.067724 217 173 51 5
-2.280381 69.781494 -1.805947 217 173 51 5
18.424582 -35.648212 3.414113 217 173 51 5
103.122223 -90.330681 1.155325 217 173 51 5
49.681564 91.430992 0.709633 217 173 51 5
99.820435 -86.161491 1.367542 217 173 51 5
51.345108 41.384346 3.432008 217 173 51 5
2.438008 88.318184 -0.948301 217 173 51 5
49.731873 41.850613 3.563004 217 173 51 5
60.906002 31.814943 5.981258 217 173 51 5
-2.064941 69.926720 -1.655667 217 173 51 5
-2.285648 70.048622 -1.667818 217 173 51 5
19.078241 -34.189079 4.024032 217 173 51 5
105.741989 -93.619102 1.192388 217 173 51 5
-2.109468 69.973869 -1.655825 217 173 51 5
-102.086525 -101.919197 2.354378 217 173 51 5
18.999340 -34.280163 3.609753 217 173 51 5
47.632397 92.705948 3.890249 217 173 51 5
-2.161653 70.128067 -1.347943 217 173 51 5
19.263845 -33.977795 3.315051 217 173 51 5
2.094534 92.898911 -0.465825 217 173 51 5
18.630865 -35.402283 3.185722 217 173 51 5
18.406919 -35.649899 3.760850 217 173 51 5
-81.813744 45.613037 -5.523548 217 173 51 5
19.467012 -34.112999 3.682870 217 173 51 5
60.825455 31.841516 5.381908 217 173 51 5
19.222952 -33.927948 3.943355 217 173 51 5
60.741074 31.903475 5.267727 217 173 51 5
47.363182 93.125305 3.604227 217 173 51 5
19.280445 -34.055275 3.507434 217 173 51 5
49.614555 41.823627 3.630493 217 173 51 5
-1.578655 68.614937 -2.059403 217 173 51 5
-2.062671 69.843819 -1.684685 217 173 51 5
18.583855 -35.200150 3.615775 217 173 51 5
18.627655 -35.362370 3.048253 217 173 51 5
-1.449089 68.771492 -1.647982 217 173 51 5
19.161894 -33.906422 3.679967 217 173 51 5
18.682823 -34.908302 3.535812 217 173 51 5
19.030157 -35.407040 3.545897 217 173 51 5
1.460523 88.122879 -0.124728 217 173 51 5
93.006195 28.463749 1.297023 217 173 51 5
47.470749 93.087517 3.672366 217 173 51 5
60.733177 31.828838 3.823379 217 173 51 5
50.567383 41.600616 3.623089 217 173 51 5
108.975426 -97.764694 0.791568 217 173 51 5
19.322069 -33.673203 3.829630 217 173 51 5
49.534992 91.368683 2.339193 217 173 51 5
18.863987 -35.820305 3.471894 217 173 51 5
-1.233898 68.530937 -1.595584 217 173 51 5
19.276545 -33.653198 3.908660 217 173 51 5
2.218533 88.077667 -0.461325 217 173 51 5
-84.394058 45.011242 -4.851316 217 173 51 5
60.756588 31.814837 5.129138 217 173 51 5
102.428383 -89.444092 1.728196 217 173 51 5
60.637344 31.947348 5.936616 217 173 51 5
-1.422662 68.723663 -1.677952 217 173 51 5
18.857708 -35.455265 3.480833 217 173 51 5
19.242338 -33.980705 3.424122 217 173 51 5
19.307718 -33.661171 3.735429 217 173 51 5
60.791134 31.801588 5.303459 217 173 51 5
-1.849487 68.807808 -1.600126 217 173 51 5
-84.390633 44.659595 -4.546206 217 173 51 5
-84.463257 44.829243 -4.541365 217 173 51 5
3.150516 90.370224 -0.772124 217 173 51 5
19.463270 -34.084114 3.702818 217 173 51 5
3.223135 88.152107 -0.291294 217 173 51 5
49.093273 91.785156 5.060679 217 173 51 5
18.672691 -35.401405 3.250908 217 173 51 5
19.269659 -33.968143 3.604075 217 173 51 5
49.682972 91.366188 2.007556 217 173 51 5
51.461559 41.825222 3.238547 217 173 51 5
18.472212 -35.554386 3.419571 217 173 51 5
-1.501075 69.089790 -1.399739 217 173 51 5
51.165630 41.794491 2.784958 217 173 51 5
19.434656 -34.071831 3.606594 217 173 51 5
19.230064 -34.022247 3.382154 217 173 51 5
-102.994759 -102.130684 1.859574 217 173 51 5
18.881033 -34.552513 3.574085 217 173 51 5
-84.116859 45.064091 -4.772578 217 173 51 5
-2.297605 69.753326 -2.122029 217 173 51 5
18.807793 -35.445042 3.378438 217 173 51 5
49.668056 91.448807 5.366620 217 173 51 5
47.345963 92.981369 3.910537 217 173 51 5
49.691013 91.387207 3.692864 217 173 51 5
-82.104721 45.207062 -5.315883 217 173 51 5
-103.004463 -102.159737 1.807965 217 173 51 5
19.334459 -33.660610 3.790519 217 173 51 5
-2.124401 69.565369 -1.712441 217 173 51 5
61.045074 31.755215 5.571230 217 173 51 5
-1.729465 69.360916 -1.671833 217 173 51 5
47.326988 93.066040 3.599099 217 173 51 5
-82.079109 44.406563 -4.956081 217 173 51 5
50.719120 41.992950 3.249373 217 173 51 5
18.882666 -35.448048 3.441951 217 173 51 5
-1.221011 68.533989 -1.590539 217 173 51 5
-1.394656 68.749496 -1.644199 217 173 51 5
49.878323 42.139626 2.823172 217 173 51 5
18.793676 -35.480301 3.104070 217 173 51 5
103.546516 -90.910927 0.721801 217 173 51 5
-83.790863 46.165092 -5.339722 217 173 51 5
-2.286015 69.551384 -1.643472 217 173 51 5
47.445362 93.125824 3.934824 217 173 51 5
-2.162908 69.530762 -1.710336 217 173 51 5
100.732002 -87.328438 1.288703 217 173 51 5
-80.816307 53.201809 -4.599943 217 173 51 5
-102.102867 -101.930267 1.486982 217 173 51 5
92.064713 26.694450 1.619823 217 173 51 5
49.515797 91.350815 2.689955 217 173 51 5
-82.409210 43.381229 -4.372079 217 173 51 5
49.569588 42.292065 3.199586 217 173 51 5
-82.916771 44.613476 -4.878297 217 173 51 5
18.538342 -35.708466 3.442438 217 173 51 5
19.107735 -35.255749 3.568187 217 173 51 5
92.447411 28.316307 0.388637 217 173 51 5
47.406967 92.830055 3.872679 217 173 51 5
49.845978 41.726994 3.515949 217 173 51 5
105.693214 -93.586601 1.465281 217 173 51 5
-2.265391 69.768898 -1.706216 217 173 51 5
19.262821 -34.648006 3.684414 217 173 51 5
60.805962 31.923342 4.024536 217 173 51 5
51.412495 41.644859 3.226405 217 173 51 5
49.469162 41.926380 3.212067 217 173 51 5
102.750145 -89.908875 1.697869 217 173 51 5
-2.258181 69.695152 -2.024140 217 173 51 5
49.545654 91.423180 4.461273 217 173 51 5
-84.422005 44.226044 -4.510275 217 173 51 5
-83.135529 44.083038 -4.494228 217 173 51 5
51.113884 41.622509 3.029004 217 173 51 5
60.514271 32.062031 6.182796 217 173 51 5
47.639965 92.721558 3.899382 217 173 51 5
-120.365814 87.322105 0.986529 217 173 51 5
60.808983 31.928543 5.069876 217 173 51 5
51.102879 41.769886 2.806122 217 173 51 5
18.581482 -35.257847 3.532105 217 173 51 5
19.182287 -35.044556 3.641203 217 173 51 5
49.673588 91.434212 4.540187 217 173 51 5
-1.594170 68.637619 -1.865359 217 173 51 5
-82.472626 45.336266 -5.279280 217 173 51 5
-2.302647 69.740982 -1.867428 217 173 51 5
98.735229 -84.785675 1.478896 217 173 51 5
-82.405563 44.401867 -5.016202 217 173 51 5
18.749971 -34.903881 3.506892 217 173 51 5
51.104237 41.567669 2.985801 217 173 51 5
47.500023 92.742378 3.577425 217 173 51 5
19.512440 -34.110542 3.775453 217 173 51 5
47.748585 92.785797 5.126576 217 173 51 5
-102.270737 -101.832161 2.497436 217 173 51 5
18.960180 -34.596649 3.640389 217 173 51 5
100.556992 -87.106468 0.759911 217 173 51 5
61.106750 31.749950 5.961815 217 173 51 5
-2.257277 69.686218 -2.119470 217 173 51 5
19.475052 -34.012894 3.768434 217 173 51 5
1.714990 88.106407 -0.402742 217 173 51 5
60.836834 31.848196 5.626945 217 173 51 5
18.382624 -35.633797 3.570719 217 173 51 5
2.151628 92.879105 -0.045475 217 173 51 5
-115.188843 63.850117 0.809258 217 173 51 5
49.692890 91.347343 4.651466 217 173 51 5
60.768681 31.783525 5.923706 217 173 51 5
51.374199 41.408028 3.376542 217 173 51 5
18.844309 -35.478119 3.070812 217 173 51 5
49.623158 91.294128 4.806620 217 173 51 5
92.917084 27.214449 1.456141 217 173 51 5
18.618696 -35.230080 3.875942 217 173 51 5
-2.180936 70.131393 -1.321371 217 173 51 5
19.014954 -34.363235 3.995511 217 173 51 5
50.512753 41.914078 3.187371 217 173 51 5
47.633053 92.641403 3.511682 217 173 51 5
104.163353 -91.663040 0.620114 217 173 51 5
19.243504 -34.002186 3.390248 217 173 51 5
51.034134 41.627247 2.804451 217 173 51 5
60.787743 31.930756 3.706151 217 173 51 5
-2.282583 69.728394 -2.121078 217 173 51 5
19.292280 -34.125023 3.752560 217 173 51 5
18.997355 -35.485199 3.518593 217 173 51 5
1.768134 88.114372 -0.988834 217 173 51 5
-102.104347 -101.939346 1.677973 217 173 51 5
49.683128 91.365768 0.457344 217 173 51 5
105.455444 -93.274605 0.564074 217 173 51 5
19.247519 -34.058357 3.501774 217 173 51 5
-1.415572 68.721146 -2.032877 217 173 51 5
-115.465889 62.495811 0.798144 217 173 51 5
49.526379 91.356621 5.781150 217 173 51 5
-102.602997 -102.472755 2.469215 217 173 51 5
49.644245 91.306770 2.111940 217 173 51 5
-1.899262 69.582756 -1.480352 217 173 51 5
51.075958 41.636703 3.203009 217 173 51 5
51.122963 41.617439 2.957178 217 173 51 5
-2.286404 69.744118 -2.022453 217 173 51 5
2.873540 92.748466 -0.615842 217 173 51 5
50.496147 41.635143 3.289438 217 173 51 5
-2.048280 69.235001 -1.629679 217 173 51 5
-115.196335 63.726871 0.838388 217 173 51 5
102.368004 -89.381409 0.807305 217 173 51 5
-83.683289 45.175018 -4.987035 217 173 51 5
60.507511 32.080441 5.574498 217 173 51 5
47.606026 92.990959 3.872547 217 173 51 5
-118.414749 71.990875 0.837302 217 173 51 5
-83.205872 44.361908 -4.664864 217 173 51 5
19.422787 -34.049019 3.682872 217 173 51 5
19.272217 -33.986073 3.651941 217 173 51 5
-80.890404 51.370281 -5.074660 217 173 51 5
49.444534 91.533897 5.031674 217 173 51 5
1.352511 88.696236 -0.071686 217 173 51 5
-1.365306 68.645409 -1.650528 217 173 51 5
-1.620781 69.273186 -1.373815 217 173 51 5
18.501835 -35.479473 3.835291 217 173 51 5
105.215179 -92.988968 1.593616 217 173 51 5
49.537876 91.336411 1.251703 217 173 51 5
3.951083 44.749496 1.665978 217 173 51 5
19.317253 -33.665512 3.932127 217 173 51 5
18.783630 -34.867508 3.645007 217 173 51 5
47.700676 92.881439 3.389146 217 173 51 5
19.091219 -34.217632 3.846775 217 173 51 5
47.527779 93.054070 3.927943 217 173 51 5
93.112556 28.066023 0.814559 217 173 51 5
101.532135 -88.362564 1.247193 217 173 51 5
18.492178 -35.700092 3.425576 217 173 51 5
61.115482 31.804308 5.404341 217 173 51 5
-102.586800 -102.508163 2.276385 217 173 51 5
19.299131 -33.657784 3.726416 217 173 51 5
103.035805 -90.211258 1.387946 217 173 51 5
102.664642 -89.781952 1.214523 217 173 51 5
49.660011 91.333832 6.135935 217 173 51 5
-119.463188 78.408951 0.829796 217 173 51 5
3.580642 92.268677 -0.194889 217 173 51 5
-83.628944 45.557518 -5.345505 217 173 51 5
19.448496 -34.077957 3.660497 217 173 51 5
-1.648082 68.661606 -2.077400 217 173 51 5
-82.676033 43.684021 -4.594644 217 173 51 5
3.187315 50.719070 2.526696 217 173 51 5
47.550430 93.039452 4.009912 217 173 51 5
18.853437 -35.427391 3.473576 217 173 51 5
47.582127 92.856964 5.111633 217 173 51 5
18.806870 -35.443336 3.077286 217 173 51 5
19.364067 -34.540882 3.709200 217 173 51 5
49.754894 41.939850 2.834871 217 173 51 5
-1.322354 68.645241 -1.651151 217 173 51 5
60.834473 31.868027 6.180767 217 173 51 5
18.988989 -34.622547 3.579072 217 173 51 5
0.927237 88.178902 -0.185786 217 173 51 5
61.123917 31.786615 5.543682 217 173 51 5
19.331247 -33.694038 3.770663 217 173 51 5
-102.614876 -102.489944 2.473695 217 173 51 5
18.871794 -35.438046 3.246672 217 173 51 5
19.078848 -34.209084 3.689339 217 173 51 5
-2.083359 69.870102 -1.690412 217 173 51 5
-103.006630 -102.160019 2.355541 217 173 51 5
-84.044632 46.139400 -5.315384 217 173 51 5
49.853783 42.075394 2.830557 217 173 51 5
18.555965 -35.679871 3.508738 217 173 51 5
60.817741 31.842190 4.328317 217 173 51 5
-84.420013 46.167767 -5.111603 217 173 51 5
50.347832 41.634113 3.584368 217 173 51 5
60.803699 31.916279 6.166659 217 173 51 5
50.755898 41.554062 3.250429 217 173 51 5
49.563862 91.311859 0.359975 217 173 51 5
51.174267 41.808952 2.802237 217 173 51 5
49.749058 41.863182 2.875279 217 173 51 5
-85.394630 44.922565 -4.495185 217 173 51 5
23.004210 -19.155106 7.588217 217 173 51 5
28.140068 -20.005701 8.229102 217 173 51 5
49.543537 91.367508 1.262903 217 173 51 5
99.932526 -86.284073 1.117255 217 173 51 5
1.345536 92.594849 -0.698910 217 173 51 5
-102.501869 -101.542496 1.502324 217 173 51 5
18.858946 -34.535954 3.713983 217 173 51 5
-82.565697 43.254692 -4.414702 217 173 51 5
-1.194422 68.557610 -1.311170 217 173 51 5
107.074402 -95.350960 1.079127 217 173 51 5
60.486546 32.049305 5.967567 217 173 51 5
47.379089 93.048897 3.822230 217 173 51 5
-83.102364 46.068947 -5.419309 217 173 51 5
19.440966 -34.056976 3.463982 217 173 51 5
107.373878 -95.740837 0.849688 217 173 51 5
49.488880 42.046810 3.208209 217 173 51 5
-102.641731 -102.479134 2.495399 217 173 51 5
19.162457 -34.089500 3.914428 217 173 51 5
50.902687 41.789425 3.261045 217 173 51 5
-84.945984 45.550884 -4.924356 217 173 51 5
19.423594 -34.518852 3.706037 217 173 51 5
-84.132210 45.143192 -4.766623 217 173 51 5
18.985380 -34.605835 3.637633 217 173 51 5
-1.417082 68.894417 -1.626941 217 173 51 5
60.721222 31.860620 4.364618 217 173 51 5
60.651203 32.005733 6.164614 217 173 51 5
49.598404 91.293732 4.484720 217 173 51 5
-2.077942 69.802773 -2.082277 217 173 51 5
-85.258125 45.417004 -4.665976 217 173 51 5
19.075104 -34.179386 3.637784 217 173 51 5
49.554142 91.422607 0.301142 217 173 51 5
49.458729 41.898014 3.238704 217 173 51 5
-1.563198 68.633888 -2.050790 217 173 51 5
2.823729 88.987961 0.026475 217 173 51 5
19.341221 -33.662640 3.730472 217 173 51 5
19.288298 -34.421951 3.632724 217 173 51 5
51.192093 41.932209 3.179383 217 173 51 5
60.705933 31.895533 6.069478 217 173 51 5
18.861195 -35.767548 3.456873 217 173 51 5
60.704090 31.917200 5.233137 217 173 51 5
100.594238 -87.105049 1.777517 217 173 51 5
47.243237 93.001938 4.111738 217 173 51 5
-1.352955 68.751167 -1.437734 217 173 51 5
-82.440117 44.065796 -4.734233 217 173 51 5
18.710201 -35.803886 3.464017 217 173 51 5
-1.430765 68.709045 -1.727202 217 173 51 5
0.866019 88.180634 -0.169390 217 173 51 5
-102.092682 -101.921852 2.337682 217 173 51 5
18.639771 -35.396023 3.455032 217 173 51 5
-82.395187 43.402515 -4.372132 217 173 51 5
49.640823 91.442444 6.107062 217 173 51 5
18.835318 -35.183872 3.522020 217 173 51 5
92.040497 26.608122 1.330705 217 173 51 5
2.288729 92.895363 0.072288 217 173 51 5
49.838802 42.100269 2.773524 217 173 51 5
1.012940 89.534012 -0.028337 217 173 51 5
-2.180088 70.117424 -1.428511 217 173 51 5
106.032356 -94.022980 1.535789 217 173 51 5
0.722601 89.210838 -0.736865 217 173 51 5
-2.285067 69.770325 -1.829048 217 173 51 5
49.546120 91.415047 1.854348 217 173 51 5
47.367592 93.059944 4.116055 217 173 51 5
-1.432312 68.461128 -1.560398 217 173 51 5
18.943415 -35.614323 3.493528 217 173 51 5
-84.414757 45.797142 -5.224593 217 173 51 5
-1.730091 69.323067 -1.247082 217 173 51 5
-83.848244 45.112396 -4.804320 217 173 51 5
51.396423 41.869625 3.188600 217 173 51 5
18.540827 -35.709248 3.470167 217 173 51 5
-2.338116 69.986282 -1.720521 217 173 51 5
51.106205 41.835144 3.059352 217 173 51 5
18.433065 -35.664230 3.577018 217 173 51 5
-84.145622 43.931286 -4.245408 217 173 51 5
27.139042 -19.619669 8.750988 217 173 51 5
18.805202 -35.855877 3.475065 217 173 51 5
92.533394 26.791775 1.557851 217 173 51 5
-102.575638 -102.527016 2.101347 217 173 51 5
-102.599281 -102.487564 2.461190 217 173 51 5
91.993622 26.976963 1.607070 217 173 51 5
60.787792 31.862089 5.411328 217 173 51 5
49.780983 41.878311 3.149054 217 173 51 5
60.495342 32.044601 5.722654 217 173 51 5
102.778854 -89.899040 1.157767 217 173 51 5
60.695526 31.945406 5.234119 217 173 51 5
51.312622 41.866234 3.275164 217 173 51 5
-84.626419 45.606297 -4.917387 217 173 51 5
60.466324 32.016850 5.598874 217 173 51 5
18.842722 -35.437607 3.485980 217 173 51 5
-1.411728 68.421532 -1.579801 217 173 51 5
60.784607 31.928469 3.749046 217 173 51 5
18.645418 -35.438156 3.536326 217 173 51 5
-84.541664 44.143974 -4.173222 217 173 51 5
51.033875 41.451622 3.276938 217 173 51 5
99.933907 -86.306061 1.388974 217 173 51 5
60.873425 31.915474 6.112021 217 173 51 5
60.834431 31.868492 6.648829 217 173 51 5
-1.212452 68.547707 -1.312464 217 173 51 5
49.802246 42.120930 2.818901 217 173 51 5
61.018261 31.852379 5.599190 217 173 51 5
-1.382272 68.421638 -1.617205 217 173 51 5
-2.220254 69.705826 -2.048712 217 173 51 5
60.464054 32.005688 5.502623 217 173 51 5
2.829321 51.812958 2.383906 217 173 51 5
19.722021 -33.850018 3.755922 217 173 51 5
19.178574 -33.899799 3.671820 217 173 51 5
-2.144970 69.803337 -1.838824 217 173 51 5
-85.168510 45.284554 -4.681061 217 173 51 5
47.374374 92.839310 3.877917 217 173 51 5
19.483627 -34.109608 3.386219 217 173 51 5
60.828510 31.915829 5.655992 217 173 51 5
-1.692857 69.328590 -1.618256 217 173 51 5
18.709652 -35.778645 3.519077 217 173 51 5
3.395799 49.813889 0.279296 217 173 51 5
18.616432 -35.419891 3.130349 217 173 51 5
-81.301491 48.249504 -4.398273 217 173 51 5
51.233257 41.832321 3.195517 217 173 51 5
50.950981 41.552166 3.643920 217 173 51 5
92.569168 28.469870 1.341406 217 173 51 5
-102.119362 -101.925858 1.997527 217 173 51 5
61.107197 31.804976 5.410971 217 173 51 5
48.951092 91.890961 5.074201 217 173 51 5
-2.081668 69.843094 -2.097908 217 173 51 5
18.656595 -35.342236 3.549202 217 173 51 5
19.085213 -34.929382 3.543525 217 173 51 5
-1.402152 68.868492 -1.234255 217 173 51 5
61.055698 31.755175 5.355943 217 173 51 5
-2.309265 69.736290 -1.952728 217 173 51 5
-1.689819 69.258263 -1.395460 217 173 51 5
19.240870 -34.006630 3.584052 217 173 51 5
0.828225 90.755112 -0.438899 217 173 51 5
51.118130 41.634506 3.054634 217 173 51 5
-82.933044 44.899109 -4.863376 217 173 51 5
18.790899 -34.669682 3.715725 217 173 51 5
3.471502 91.124359 -0.607985 217 173 51 5
19.257685 -34.061893 3.326628 217 173 51 5
18.584356 -35.734009 3.442051 217 173 51 5
18.864937 -35.481701 3.435338 217 173 51 5
101.982895 -88.912231 1.201596 217 173 51 5
18.919952 -34.522858 3.593385 217 173 51 5
2.542182 92.853394 0.065623 217 173 51 5
91.741547 27.915251 1.058631 217 173 51 5
18.624510 -35.136021 3.903019 217 173 51 5
18.649445 -35.727528 3.432321 217 173 51 5
-2.094291 69.796600 -1.758821 217 173 51 5
-102.507179 -101.601059 2.449050 217 173 51 5
-82.261864 45.534157 -5.592484 217 173 51 5
-1.755640 69.402748 -1.662774 217 173 51 5
51.414280 41.865162 3.222415 217 173 51 5
-80.786522 53.602287 -4.561966 217 173 51 5
101.443825 -88.231277 1.230916 217 173 51 5
47.245369 93.047791 3.597674 217 173 51 5
18.527895 -35.709816 3.435474 217 173 51 5
50.371281 41.717094 3.640952 217 173 51 5
18.807615 -35.475109 3.300802 217 173 51 5
-2.102672 69.857613 -2.096172 217 173 51 5
-1.548899 69.160728 -1.599383 217 173 51 5
-102.584030 -102.496956 2.109048 217 173 51 5
51.132191 41.767700 3.120910 217 173 51 5
60.735561 31.843033 4.491997 217 173 51 5
49.795322 41.958839 3.212008 217 173 51 5
19.491690 -34.381386 3.738461 217 173 51 5
3.385121 90.208237 0.073107 217 173 51 5
92.697929 27.761894 0.403921 217 173 51 5
-102.124031 -101.924042 1.579413 217 173 51 5
-82.462532 45.591393 -5.633086 217 173 51 5
50.231232 42.152622 3.195199 217 173 51 5
99.136307 -85.233047 1.956822 217 173 51 5
51.378056 41.442059 3.589674 217 173 51 5
106.844948 -95.070648 1.493563 217 173 51 5
91.739250 27.876310 1.506397 217 173 51 5
-83.941689 44.224426 -4.427892 217 173 51 5
51.416401 41.678246 3.266104 217 173 51 5
19.095413 -34.000671 3.899037 217 173 51 5
99.545113 -85.780197 1.368726 217 173 51 5
19.366432 -34.664959 3.690304 217 173 51 5
18.793146 -35.445778 3.149312 217 173 51 5
-102.975220 -102.219849 2.499781 217 173 51 5
18.685329 -35.419250 3.077426 217 173 51 5
49.878357 42.056297 3.077020 217 173 51 5
-2.122466 69.810349 -1.975634 217 173 51 5
104.194237 -91.712860 1.099220 217 173 51 5
-1.672128 68.556931 -1.646426 217 173 51 5
19.071299 -34.065769 3.633443 217 173 51 5
19.217939 -34.130199 3.722952 217 173 51 5
-102.602020 -102.525085 2.209927 217 173 51 5
18.472118 -35.580936 3.847654 217 173 51 5
51.205723 41.864513 3.246433 217 173 51 5
51.449493 41.719467 3.223010 217 173 51 5
19.662134 -33.955872 3.779458 217 173 51 5
19.320791 -33.923958 3.674659 217 173 51 5
3.775234 45.272224 3.005684 217 173 51 5
0.851552 90.853149 -0.766319 217 173 51 5
60.521111 32.009312 5.237333 217 173 51 5
60.713718 31.912939 5.217563 217 173 51 5
19.226339 -34.929974 3.579633 217 173 51 5
24.504070 -19.616320 6.269960 217 173 51 5
109.654366 -98.641205 0.376161 217 173 51 5
3.486004 91.110840 -0.221339 217 173 51 5
47.242565 92.937920 3.806273 217 173 51 5
3.347638 89.512352 -0.417260 217 173 51 5
51.462963 41.828888 3.178771 217 173 51 5
18.633345 -35.371964 3.463828 217 173 51 5
47.679871 92.737968 3.910285 217 173 51 5
-1.932082 69.693748 -1.600510 217 173 51 5
1.943992 88.096184 -0.463785 217 173 51 5
51.059406 41.564606 2.961543 217 173 51 5
-1.461683 68.774803 -2.058588 217 173 51 5
50.655140 41.999458 3.261794 217 173 51 5
18.649426 -35.347717 3.074385 217 173 51 5
49.539619 91.403374 6.137948 217 173 51 5
101.502090 -88.283905 1.249515 217 173 51 5
61.042374 31.832155 5.528144 217 173 51 5
60.568413 32.050098 6.000663 217 173 51 5
-83.218033 44.055016 -4.487263 217 173 51 5
60.837067 31.932604 5.944362 217 173 51 5
49.834446 42.055454 3.108592 217 173 51 5
18.879221 -35.459461 3.359174 217 173 51 5
19.229305 -33.968994 3.439989 217 173 51 5
-2.282573 69.708473 -2.121420 217 173 51 5
-1.611556 69.193138 -1.625873 217 173 51 5
-83.707138 44.604324 -4.619470 217 173 51 5
-102.543442 -101.602013 2.041397 217 173 51 5
18.606865 -35.404602 3.084935 217 173 51 5
92.803444 27.102638 0.446517 217 173 51 5
-84.429405 44.543633 -4.387116 217 173 51 5
49.749321 41.897224 2.890991 217 173 51 5
-1.254837 68.512230 -1.600067 217 173 51 5
-1.265249 68.569382 -1.343910 217 173 51 5
102.385071 -89.379120 1.736144 217 173 51 5
-1.420279 68.763176 -1.650775 217 173 51 5
92.403534 28.448341 0.822922 217 173 51 5
49.772320 41.908611 2.798200 217 173 51 5
-102.525024 -101.574646 2.103671 217 173 51 5
51.367355 41.410030 3.315635 217 173 51 5
18.877211 -34.741066 3.629973 217 173 51 5
49.116287 91.745186 5.031810 217 173 51 5
98.924538 -85.018372 1.433470 217 173 51 5
-84.234879 43.765022 -4.238846 217 173 51 5
18.669821 -35.383698 3.340873 217 173 51 5
19.250576 -33.991844 3.372667 217 173 51 5
49.590794 91.318108 1.295841 217 173 51 5
49.573586 91.313820 0.247253 217 173 51 5
-120.569794 87.161308 0.896085 217 173 51 5
-2.104405 70.028633 -1.409002 217 173 51 5
2.119053 91.263725 -0.759769 217 173 51 5
49.764755 41.937283 3.070523 217 173 51 5
-2.140692 70.023903 -1.707808 217 173 51 5
18.820995 -35.440628 3.477113 217 173 51 5
19.263735 -34.392834 3.633773 217 173 51 5
18.862192 -35.495258 3.066236 217 173 51 5
49.846657 41.831928 3.460492 217 173 51 5
49.455223 41.905396 3.233583 217 173 51 5
0.643464 88.352890 -0.589501 217 173 51 5
19.279800 -33.727287 4.094851 217 173 51 5
51.064083 41.617199 3.204847 217 173 51 5
51.364311 41.410172 3.416111 217 173 51 5
-1.833929 69.516731 -1.684886 217 173 51 5
49.601326 91.462280 0.213687 217 173 51 5
-102.092567 -101.925003 2.292134 217 173 51 5
107.837433 -96.324493 0.467200 217 173 51 5
91.670067 28.275284 0.706568 217 173 51 5
19.398964 -33.717308 3.716621 217 173 51 5
60.781887 31.921658 6.516936 217 173 51 5
47.668270 92.954697 3.859458 217 173 51 5
61.106087 31.806211 5.452393 217 173 51 5
49.837013 42.092102 3.025479 217 173 51 5
2.030937 92.925743 0.068189 217 173 51 5
-84.780624 45.129066 -4.784316 217 173 51 5
19.089006 -35.091930 3.532853 217 173 51 5
48.069744 92.529709 5.152193 217 173 51 5
50.440243 41.807289 3.196371 217 173 51 5
-1.317520 68.482964 -1.618489 217 173 51 5
60.723618 31.893038 4.019648 217 173 51 5
92.909149 27.943748 1.431164 217 173 51 5
18.847294 -35.484715 3.372612 217 173 51 5
-1.604979 68.628105 -2.073729 217 173 51 5
-1.449314 68.850578 -1.647430 217 173 51 5
1.909304 88.095543 -0.093362 217 173 51 5
-102.459892 -101.590523 2.482281 217 173 51 5
100.520370 -87.122093 1.283961 217 173 51 5
47.797318 92.752159 5.162456 217 173 51 5
0.825664 89.668800 -0.939636 217 173 51 5
19.543461 -33.767361 3.762683 217 173 51 5
