ply
format ascii 1.0
element vertex 1121
property float x
property float y
property float z
property uchar red
property uchar green
property uchar blue
property int label
end_header
84.977516 88.284409 -1.451913 140 99 56 0
-77.443398 -96.135902 -0.423319 140 99 56 0
62.804981 84.747360 -0.367806 140 99 56 0
-3.478416 -106.506767 0.698469 140 99 56 0
45.082386 -35.662621 5.325729 140 99 56 0
10.742610 86.100624 -0.535714 140 99 56 0
103.502762 -98.308769 0.524212 140 99 56 0
78.333923 48.378319 0.169385 140 99 56 0
-74.364067 -71.170753 -1.467529 140 99 56 0
-31.730879 59.814430 -5.111964 140 99 56 0
-61.245430 107.038025 -0.057323 140 99 56 0
-68.062737 88.702003 -2.234148 140 99 56 0
-76.255440 -71.876266 -1.153260 140 99 56 0
-88.795013 51.154278 -5.170918 140 99 56 0
102.275070 -33.058289 0.970975 140 99 56 0
-91.687668 -12.937503 0.119049 140 99 56 0
93.221596 96.517426 -1.423118 140 99 56 0
58.611546 8.112657 5.797462 140 99 56 0
-3.936267 60.767719 -2.409020 140 99 56 0
77.357140 26.406944 2.410845 140 99 56 0
40.691631 91.044525 0.289207 140 99 56 0
-63.343697 69.947075 -5.205943 140 99 56 0
-43.967102 -11.932177 -2.246069 140 99 56 0
74.479286 27.835533 2.535988 140 99 56 0
-10.211440 -30.220394 -0.315295 140 99 56 0
7.002890 74.693520 -1.242618 140 99 56 0
-69.080948 -23.014273 -1.302989 140 99 56 0
-52.700497 -90.675797 -2.250987 140 99 56 0
89.366364 -66.268753 1.541003 140 99 56 0
-114.202217 48.311916 -1.982584 140 99 56 0
92.988991 -38.363808 1.984724 140 99 56 0
65.050209 88.995773 -0.397258 140 99 56 0
113.745598 -13.273601 -0.183940 140 99 56 0
-119.850410 -23.355280 2.826347 140 99 56 0
-72.928772 -70.204887 -1.491597 140 99 56 0
115.369415 96.546165 -1.932823 140 99 56 0
-7.487301 88.149078 -1.608229 140 99 56 0
-58.473076 -62.268742 -2.995785 140 99 56 0
74.919434 23.116680 3.087134 140 99 56 0
41.313026 -18.306471 6.344424 140 99 56 0
17.200876 88.675919 -0.214615 140 99 56 0
117.170441 14.508323 -1.512789 140 99 56 0
61.781181 21.716644 4.487156 140 99 56 0
48.997738 58.924938 0.878170 140 99 56 0
-91.446205 80.605087 -2.096045 140 99 56 0
-34.627617 18.928349 -3.649461 140 99 56 0
33.923679 -24.523603 5.526694 140 99 56 0
82.248009 -105.948288 2.155066 140 99 56 0
7.767068 -33.461975 1.823917 140 99 56 0
3.517415 -90.007942 -0.127631 140 99 56 0
64.039085 -97.583595 3.207262 140 99 56 0
-10.745517 99.397125 -0.640613 140 99 56 0
67.519836 38.858006 2.122786 140 99 56 0
-6.028054 -59.705517 -2.127988 140 99 56 0
31.309511 -48.332294 3.351336 140 99 56 0
-111.555305 -103.241974 1.843058 140 99 56 0
57.646549 99.275009 0.305549 140 99 56 0
-29.577251 -19.387714 -1.554529 140 99 56 0
50.680962 -101.408218 3.597306 140 99 56 0
-112.497589 29.211113 -1.307399 140 99 56 0
-31.283304 -42.890373 -2.766478 140 99 56 0
-106.759811 52.087414 -3.023679 140 99 56 0
96.676842 -54.703438 1.021729 140 99 56 0
76.272743 15.021340 3.730264 140 99 56 0
-7.734163 105.973724 0.003855 140 99 56 0
83.475510 -96.552139 1.982429 140 99 56 0
-1.049740 15.321312 1.460647 140 99 56 0
-7.267317 -86.616646 -1.498627 140 99 56 0
-86.517616 71.162811 -3.810884 140 99 56 0
60.468227 19.826738 4.803238 140 99 56 0
-70.905823 54.971748 -6.264408 140 99 56 0
-73.521339 46.809624 -6.335906 140 99 56 0
34.624512 70.549484 0.160057 140 99 56 0
17.865730 99.238678 0.368872 140 99 56 0
86.684303 36.460155 0.382336 140 99 56 0
46.097324 -42.444286 4.754112 140 99 56 0
51.378117 27.254719 4.520477 140 99 56 0
118.287430 -69.850914 -0.952808 140 99 56 0
-9.326427 78.034958 -2.345414 140 99 56 0
-28.965071 -41.211475 -2.681586 140 99 56 0
35.335400 94.646355 0.436285 140 99 56 0
38.314964 -46.400688 4.123900 140 99 56 0
97.116989 -77.949646 0.734979 140 99 56 0
8.663928 -99.752190 1.167341 140 99 56 0
-69.164543 96.729088 -0.907128 140 99 56 0
33.992374 -47.280632 3.731086 140 99 56 0
102.421379 83.914825 -2.435147 140 99 56 0
-14.754902 -103.502678 -0.429627 140 99 56 0
33.034103 -36.495441 4.560343 140 99 56 0
-74.584198 -84.258911 -1.103739 140 99 56 0
14.139117 24.944998 2.850173 140 99 56 0
-107.207603 19.528751 -1.019397 140 99 56 0
-20.916864 -1.518107 -0.517471 140 99 56 0
94.220596 -40.401619 1.817381 140 99 56 0
119.067535 -40.561802 -0.889827 140 99 56 0
-84.945496 56.070366 -5.191078 140 99 56 0
-113.583649 -12.562223 2.368651 140 99 56 0
68.916260 -69.436897 2.983910 140 99 56 0
-47.199608 -35.271637 -2.696593 140 99 56 0
26.048794 -40.487720 3.525223 140 99 56 0
14.664243 12.921433 3.935445 140 99 56 0
-1.377029 -91.070328 -0.616126 140 99 56 0
-31.073748 -81.415955 -3.239595 140 99 56 0
-0.820981 17.144321 1.440080 140 99 56 0
-78.681129 -84.402000 -0.714365 140 99 56 0
54.442295 17.756834 5.170012 140 99 56 0
-113.191818 85.556061 -0.163512 140 99 56 0
84.775574 -100.930962 1.974713 140 99 56 0
57.225197 -42.935558 4.813955 140 99 56 0
-31.094711 108.987007 -0.226235 140 99 56 0
99.956268 74.996155 -2.640692 140 99 56 0
-112.484116 35.864857 -1.694008 140 99 56 0
-23.297398 -53.881905 -3.164951 140 99 56 0
61.132050 -65.454445 3.477514 140 99 56 0
90.419411 -92.588951 1.437037 140 99 56 0
65.333099 88.729286 -0.513737 140 99 56 0
-109.624588 -71.812683 1.666627 140 99 56 0
57.858486 70.545502 -0.016664 140 99 56 0
89.772163 -15.330094 2.831496 140 99 56 0
-28.644682 -40.177284 -2.573728 140 99 56 0
98.377846 24.177616 -0.010332 140 99 56 0
-56.872185 -40.159489 -2.476732 140 99 56 0
69.518471 86.071625 -0.655569 140 99 56 0
91.991348 -96.673607 1.388660 140 99 56 0
107.438660 85.075401 -2.477213 140 99 56 0
-16.404242 22.593767 -1.514042 140 99 56 0
-11.900899 27.115419 -1.256805 140 99 56 0
51.984158 -61.367607 3.709075 140 99 56 0
110.340652 48.203789 -2.857383 140 99 56 0
-62.353508 32.092014 -6.130455 140 99 56 0
17.003332 70.983047 -0.656167 140 99 56 0
52.073441 41.860985 2.683466 140 99 56 0
-28.417738 51.277382 -5.129055 140 99 56 0
52.572624 91.812233 0.132578 140 99 56 0
110.441116 -78.486748 -0.331807 140 99 56 0
56.128384 17.402941 5.215991 140 99 56 0
-30.445635 59.382374 -5.104152 140 99 56 0
-30.475773 -106.560814 -0.983599 140 99 56 0
23.618395 -12.811410 5.223630 140 99 56 0
4.682660 -53.549839 -0.379867 140 99 56 0
-15.588229 -58.610806 -2.899374 140 99 56 0
13.705836 49.468548 0.210428 140 99 56 0
-72.000992 -101.103683 -0.610613 140 99 56 0
-92.395317 9.390944 -1.583945 140 99 56 0
-81.879028 -20.365234 -0.297414 140 99 56 0
10.812711 30.910042 1.779187 140 99 56 0
106.841103 27.879702 -1.434779 140 99 56 0
-89.417786 -104.374901 0.796930 140 99 56 0
-63.200439 58.203300 -6.325092 140 99 56 0
-1.114714 -95.890282 -0.047052 140 99 56 0
-22.365589 12.928582 -1.451467 140 99 56 0
34.741707 -61.937756 2.755585 140 99 56 0
35.135231 -84.847664 2.537870 140 99 56 0
-105.675301 29.011810 -2.106349 140 99 56 0
-85.290047 69.754700 -3.972188 140 99 56 0
110.463768 -96.765808 -0.010884 140 99 56 0
44.247246 -29.251577 5.760373 140 99 56 0
-5.971509 48.725918 -2.098349 140 99 56 0
58.395420 -5.688324 6.207967 140 99 56 0
45.644287 -10.058996 6.598736 140 99 56 0
-21.540512 -77.459419 -3.204166 140 99 56 0
-100.391983 -96.654732 1.433209 140 99 56 0
-41.228657 -50.127293 -3.358341 140 99 56 0
119.932198 -6.163367 -0.821527 140 99 56 0
-105.508690 20.099072 -1.267180 140 99 56 0
114.407173 -55.739315 -0.759028 140 99 56 0
-25.562269 76.620461 -3.588429 140 99 56 0
50.921871 -65.735260 3.472129 140 99 56 0
96.797211 -10.293730 1.831095 140 99 56 0
-63.337334 -61.554855 -2.398904 140 99 56 0
47.106358 68.738472 0.460375 140 99 56 0
-116.548828 -51.153042 2.113538 140 99 56 0
-72.370110 -78.895454 -1.503139 140 99 56 0
-13.890605 -108.748367 0.094079 140 99 56 0
-57.887733 -71.344940 -2.734814 140 99 56 0
-116.398636 -46.449841 2.256156 140 99 56 0
107.443687 -92.087753 0.141241 140 99 56 0
36.219563 -84.041931 2.781373 140 99 56 0
19.141277 -6.041219 5.006165 140 99 56 0
-114.911247 -50.702618 2.174607 140 99 56 0
71.760033 70.311493 -0.800930 140 99 56 0
-8.275973 -1.808408 1.077130 140 99 56 0
-81.260292 -17.016729 -0.589987 140 99 56 0
-33.049103 23.742538 -3.883744 140 99 56 0
6.917390 -67.217148 -0.573878 140 99 56 0
7.251764 -107.937836 1.830839 140 99 56 0
108.650551 -54.092480 -0.107439 140 99 56 0
-23.129202 -2.883782 -0.737339 140 99 56 0
32.279861 -49.248322 3.352016 140 99 56 0
-69.009453 40.593052 -6.458839 140 99 56 0
38.195259 -30.448917 5.436816 140 99 56 0
-10.577408 -70.829445 -2.636455 140 99 56 0
-16.828951 85.607956 -2.300711 140 99 56 0
104.738831 18.079048 -0.496395 140 99 56 0
34.982574 -27.373671 5.456719 140 99 56 0
-18.098146 -49.267574 -2.665578 140 99 56 0
5.602095 -5.639152 3.265358 140 99 56 0
104.865044 -14.346318 0.787312 140 99 56 0
-79.616821 -73.484917 -0.867491 140 99 56 0
-99.303543 -95.882050 1.255518 140 99 56 0
118.926910 -98.632812 -0.568660 140 99 56 0
-8.965061 -16.903648 0.681586 140 99 56 0
-9.940019 68.591660 -2.903809 140 99 56 0
-63.726795 -83.854073 -1.976653 140 99 56 0
-79.296066 29.995321 -5.105205 140 99 56 0
66.767769 36.838696 2.470977 140 99 56 0
115.155350 25.781849 -1.974886 140 99 56 0
57.825329 76.577774 -0.227603 140 99 56 0
-90.185989 -82.085968 0.162763 140 99 56 0
27.511318 16.718973 4.989082 140 99 56 0
8.808276 -97.557671 0.973913 140 99 56 0
-70.327637 -88.331596 -1.302200 140 99 56 0
-105.733635 -80.471474 1.541121 140 99 56 0
10.420311 -48.772499 0.770530 140 99 56 0
52.536133 -16.562096 6.368992 140 99 56 0
-81.160973 -95.165298 -0.173882 140 99 56 0
-16.854696 16.767542 -1.078065 140 99 56 0
114.220222 34.955482 -2.463679 140 99 56 0
-100.691322 -107.646851 1.606058 140 99 56 0
-118.285088 -22.042774 2.561131 140 99 56 0
81.084450 -26.267525 3.775145 140 99 56 0
39.841190 -20.644041 6.020985 140 99 56 0
30.183783 90.718071 0.281635 140 99 56 0
-62.534027 102.615631 -0.432682 140 99 56 0
-55.160702 -49.423450 -2.642310 140 99 56 0
-21.502783 57.562515 -4.234463 140 99 56 0
-0.563612 35.592522 -0.299499 140 99 56 0
-31.158110 -52.583149 -3.415299 140 99 56 0
41.482761 -11.590168 6.498849 140 99 56 0
51.657326 -42.660435 4.943333 140 99 56 0
-117.163361 33.540989 -0.991754 140 99 56 0
-52.952599 -34.914509 -2.388102 140 99 56 0
-108.742378 54.368603 -2.682781 140 99 56 0
7.920767 72.518173 -1.270106 140 99 56 0
-68.729263 24.023039 -5.245898 140 99 56 0
-10.807744 -105.746414 0.077981 140 99 56 0
-63.492443 37.679836 -6.532118 140 99 56 0
96.890831 85.354515 -2.146822 140 99 56 0
32.477261 -44.409767 3.893986 140 99 56 0
116.089188 -21.974697 -0.393617 140 99 56 0
112.455910 45.553730 -2.972651 140 99 56 0
7.846727 -43.546089 0.895166 140 99 56 0
64.583946 -89.216927 3.069761 140 99 56 0
-17.937408 100.577530 -0.821146 140 99 56 0
16.235945 89.386459 -0.211545 140 99 56 0
-113.097679 29.168692 -1.088845 140 99 56 0
-1.347712 100.543427 -0.254991 140 99 56 0
-62.575878 -1.784681 -2.691684 140 99 56 0
2.044991 69.206795 -1.716599 140 99 56 0
35.462395 -106.407516 3.513798 140 99 56 0
52.927193 28.524706 4.389602 140 99 56 0
-48.921955 -48.634007 -3.097612 140 99 56 0
36.753090 8.572882 6.170082 140 99 56 0
-69.678383 58.078114 -6.260341 140 99 56 0
-81.322189 94.111557 -0.738775 140 99 56 0
72.880669 -101.212212 2.750089 140 99 56 0
-5.613630 12.808302 1.035583 140 99 56 0
-23.527256 76.849686 -3.476752 140 99 56 0
14.608207 72.501030 -0.721692 140 99 56 0
-77.824593 69.107620 -4.528254 140 99 56 0
-18.231586 27.591045 -2.211806 140 99 56 0
96.934204 -15.387584 1.761202 140 99 56 0
82.341324 8.391402 3.243517 140 99 56 0
56.488457 -37.502693 5.357082 140 99 56 0
-74.995338 -88.852455 -0.962850 140 99 56 0
-20.535309 -92.784058 -1.983281 140 99 56 0
-40.750397 -66.597664 -3.774370 140 99 56 0
-29.083712 54.358627 -5.120706 140 99 56 0
-80.438896 -76.421501 -0.665287 140 99 56 0
54.341469 -61.996727 3.728513 140 99 56 0
90.475372 27.403616 0.739127 140 99 56 0
38.106972 73.344704 0.262142 140 99 56 0
59.443657 8.428651 5.773030 140 99 56 0
80.241577 108.463425 -0.117397 140 99 56 0
-27.962120 13.597086 -2.385043 140 99 56 0
19.301407 66.146255 -0.219290 140 99 56 0
66.556335 -83.465836 3.140876 140 99 56 0
57.352726 67.971703 0.098630 140 99 56 0
-16.791088 -69.315178 -3.032401 140 99 56 0
85.340446 -94.605972 1.899953 140 99 56 0
84.350540 -42.447716 2.718084 140 99 56 0
14.239930 -68.839401 0.306248 140 99 56 0
117.634102 -71.001694 -0.815824 140 99 56 0
-80.553452 -20.733492 -0.589958 140 99 56 0
-77.149452 -2.533000 -1.945137 140 99 56 0
68.843170 -106.607567 3.009281 140 99 56 0
1.669266 109.508286 0.575308 140 99 56 0
-91.380653 29.471439 -3.892094 140 99 56 0
77.387482 -62.354836 2.669501 140 99 56 0
31.490282 52.219501 1.373930 140 99 56 0
26.383783 37.253265 2.773561 140 99 56 0
-75.815605 -83.845909 -1.005820 140 99 56 0
37.775406 105.700081 1.077348 140 99 56 0
-23.661457 26.837994 -3.010352 140 99 56 0
99.041344 -9.495232 1.578854 140 99 56 0
-16.251722 11.064349 -0.504876 140 99 56 0
-71.370110 75.477654 -4.138251 140 99 56 0
92.163406 -60.765026 1.302484 140 99 56 0
117.999344 -15.592480 -0.581243 140 99 56 0
92.412758 11.748110 1.643906 140 99 56 0
-21.799896 -16.333103 -0.795904 140 99 56 0
75.291809 -16.372629 4.745558 140 99 56 0
-111.353531 17.281296 -0.140420 140 99 56 0
-36.279293 68.512604 -5.038868 140 99 56 0
19.166924 -29.536909 3.608230 140 99 56 0
52.042477 -72.682404 3.442521 140 99 56 0
-72.161499 -98.898026 -0.721558 140 99 56 0
-72.132118 104.360970 0.098013 140 99 56 0
-110.614975 29.590834 -1.462597 140 99 56 0
44.695206 -92.257370 3.329295 140 99 56 0
60.923901 22.975796 4.396506 140 99 56 0
32.585899 17.621101 5.328752 140 99 56 0
-44.069496 12.654181 -3.777675 140 99 56 0
-35.047462 -92.123589 -2.633798 140 99 56 0
26.108749 -21.139238 5.128891 140 99 56 0
3.443950 -33.260872 1.098349 140 99 56 0
45.448784 -83.759224 3.090108 140 99 56 0
57.672039 -54.234974 4.144928 140 99 56 0
-109.332008 -61.088505 1.634779 140 99 56 0
52.598907 63.116001 0.554410 140 99 56 0
-87.241455 -27.072672 0.262567 140 99 56 0
41.225067 -69.583588 3.017939 140 99 56 0
-68.884773 -83.707626 -1.615264 140 99 56 0
-59.534420 -67.408821 -2.783990 140 99 56 0
-40.868053 -75.498955 -3.557645 140 99 56 0
-71.256859 -94.804329 -0.948820 140 99 56 0
-24.729328 54.765446 -4.762612 140 99 56 0
101.528252 97.164322 -1.617735 140 99 56 0
-38.189518 -50.106079 -3.339420 140 99 56 0
-114.481140 100.487450 1.442116 140 99 56 0
-19.239193 101.966888 -0.719761 140 99 56 0
-85.989075 35.847610 -5.026431 140 99 56 0
-12.911328 65.264137 -3.290145 140 99 56 0
91.730606 -49.468037 1.693710 140 99 56 0
8.679049 7.293025 3.408455 140 99 56 0
62.658733 -62.565586 3.499301 140 99 56 0
8.886366 85.605217 -0.763405 140 99 56 0
110.537483 9.987808 -0.655234 140 99 56 0
66.906967 61.033230 0.144607 140 99 56 0
-62.917572 -3.467033 -2.685845 140 99 56 0
27.557297 57.274796 0.677034 140 99 56 0
-110.334518 9.780561 0.344040 140 99 56 0
74.384033 -14.612304 4.715112 140 99 56 0
-113.721062 12.861966 0.570703 140 99 56 0
-15.208478 -91.458359 -1.815161 140 99 56 0
51.868172 -80.208290 3.467072 140 99 56 0
-116.177498 -47.722965 2.136261 140 99 56 0
113.453453 -101.528557 -0.156712 140 99 56 0
113.980637 -63.750668 -0.563118 140 99 56 0
-66.490051 40.386745 -6.555987 140 99 56 0
82.679634 -28.234180 3.465010 140 99 56 0
-29.403948 -31.921385 -2.130126 140 99 56 0
43.003845 40.137592 3.099864 140 99 56 0
101.198280 61.440941 -2.659912 140 99 56 0
34.436249 97.526573 0.499606 140 99 56 0
-12.598717 -54.525509 -2.494085 140 99 56 0
-113.840187 32.580780 -1.367490 140 99 56 0
-86.174126 -19.035416 -0.052571 140 99 56 0
86.892082 27.548744 1.166680 140 99 56 0
-35.864529 -81.929298 -3.262828 140 99 56 0
28.535311 43.692924 2.115907 140 99 56 0
17.457458 -73.917137 0.594763 140 99 56 0
97.818001 -11.773013 1.821385 140 99 56 0
35.216896 -19.312752 6.008027 140 99 56 0
23.169073 -89.171501 1.747254 140 99 56 0
28.123892 -47.108543 3.080548 140 99 56 0
76.731956 -36.401291 3.797293 140 99 56 0
45.022221 65.157745 0.646698 140 99 56 0
38.501511 -24.719063 5.849646 140 99 56 0
-92.863632 -20.959785 0.584117 140 99 56 0
6.175219 80.425240 -1.077049 140 99 56 0
-67.338615 108.482513 0.401304 140 99 56 0
77.004189 24.339262 2.718198 140 99 56 0
116.384087 -50.080204 -0.764406 140 99 56 0
-15.722769 59.174129 -3.738119 140 99 56 0
-52.500835 -75.780426 -2.957754 140 99 56 0
23.995338 83.619400 -0.166829 140 99 56 0
50.945446 -93.459206 3.492111 140 99 56 0
-111.399635 -12.901349 2.017338 140 99 56 0
111.104057 31.409388 -2.032659 140 99 56 0
-17.758730 -34.174232 -1.403013 140 99 56 0
19.775261 -1.998074 5.088214 140 99 56 0
-74.140419 -71.733665 -1.453181 140 99 56 0
-38.411087 -52.786396 -3.483863 140 99 56 0
-118.561974 -36.627857 2.550365 140 99 56 0
-38.633064 -6.171247 -2.215309 140 99 56 0
-77.587440 -103.286575 -0.137333 140 99 56 0
-87.471672 -22.439611 0.260282 140 99 56 0
-38.574619 93.948425 -1.916361 140 99 56 0
57.773067 -78.739166 3.338295 140 99 56 0
-60.219151 -55.921951 -2.557051 140 99 56 0
64.749641 -58.990952 3.650003 140 99 56 0
-18.810377 -46.664646 -2.611786 140 99 56 0
-43.572525 99.132286 -1.311310 140 99 56 0
71.988571 69.882103 -0.700778 140 99 56 0
103.979546 -39.534374 0.545840 140 99 56 0
91.774071 69.275009 -2.173537 140 99 56 0
-118.269142 49.076012 -1.650983 140 99 56 0
-75.108101 -101.804832 -0.374409 140 99 56 0
-112.473610 13.994526 0.220182 140 99 56 0
-6.118006 47.000614 -2.005213 140 99 56 0
-13.734539 -50.004631 -2.260203 140 99 56 0
-81.755104 -26.284298 -0.284725 140 99 56 0
-20.550335 33.038914 -3.105256 140 99 56 0
-6.237669 -92.729858 -1.008348 140 99 56 0
97.805534 65.279182 -2.498385 140 99 56 0
-108.709122 15.873089 -0.369565 140 99 56 0
5.643415 71.503159 -1.385063 140 99 56 0
-80.487602 -78.391357 -0.639449 140 99 56 0
75.952187 -7.763752 4.670442 140 99 56 0
-98.073524 -105.742638 1.315427 140 99 56 0
-8.409246 69.305649 -2.729495 140 99 56 0
117.584625 -42.047287 -0.744119 140 99 56 0
-110.590515 -77.697441 1.712456 140 99 56 0
56.836441 81.038925 -0.221056 140 99 56 0
-20.919769 -100.275124 -1.361991 140 99 56 0
73.714378 -2.038652 4.778988 140 99 56 0
8.124441 48.388634 -0.194873 140 99 56 0
110.718170 31.535152 -1.920474 140 99 56 0
64.661385 -23.423895 5.501452 140 99 56 0
97.802879 70.790894 -2.501216 140 99 56 0
-43.775177 101.973587 -0.975827 140 99 56 0
-114.457458 93.098152 0.638046 140 99 56 0
64.284065 -78.261269 3.061372 140 99 56 0
-39.556061 9.782076 -3.201320 140 99 56 0
-33.068455 73.057259 -4.272740 140 99 56 0
-15.499246 -67.237442 -2.904968 140 99 56 0
-2.067172 91.495003 -0.988483 140 99 56 0
-10.859317 -40.234497 -1.246049 140 99 56 0
72.224678 77.351456 -0.933389 140 99 56 0
-11.147773 -100.075584 -0.531691 140 99 56 0
-10.387218 -73.439697 -2.545875 140 99 56 0
95.278938 27.959661 -0.008313 140 99 56 0
-43.862347 -0.749152 -2.662942 140 99 56 0
-43.277351 -85.518318 -2.858644 140 99 56 0
108.995636 69.669319 -3.172112 140 99 56 0
42.408646 105.068504 0.966389 140 99 56 0
3.797325 73.213478 -1.587031 140 99 56 0
104.240051 -72.786278 0.155129 140 99 56 0
82.280754 -14.329305 3.805680 140 99 56 0
-31.164944 7.998050 -2.331922 140 99 56 0
-25.849915 93.930832 -1.700451 140 99 56 0
-27.742924 10.301039 -2.081121 140 99 56 0
25.349274 65.301498 0.071547 140 99 56 0
-32.027493 -42.401196 -2.907209 140 99 56 0
-1.253576 -37.329628 0.128650 140 99 56 0
31.341993 -59.351475 2.558743 140 99 56 0
-16.845198 22.613041 -1.513102 140 99 56 0
58.189579 61.337414 0.572717 140 99 56 0
-20.788929 100.277534 -0.795309 140 99 56 0
29.155447 20.030970 4.849930 140 99 56 0
-10.910434 -98.970428 -0.669084 140 99 56 0
2.641935 -57.040161 -0.809354 140 99 56 0
3.986354 56.362602 -1.200119 140 99 56 0
70.150864 -69.085121 2.980364 140 99 56 0
15.617791 13.593134 4.056364 140 99 56 0
61.698883 55.040237 0.858047 140 99 56 0
6.613863 -45.986744 0.396544 140 99 56 0
-44.399876 -44.525394 -3.101937 140 99 56 0
-30.618923 -71.173203 -3.675450 140 99 56 0
-80.416969 -68.077141 -0.778600 140 99 56 0
11.857715 48.083187 0.274539 140 99 56 0
-117.433159 58.823750 -1.724978 140 99 56 0
79.683319 -56.894253 2.724366 140 99 56 0
-49.491116 -44.028767 -2.946253 140 99 56 0
-112.118073 25.741890 -0.908367 140 99 56 0
-42.364368 -13.938132 -2.165264 140 99 56 0
-62.570595 -109.307541 -0.561212 140 99 56 0
-67.138306 -108.599846 -0.477326 140 99 56 0
-20.485752 -13.940668 -0.352686 140 99 56 0
-52.569748 -39.393230 -2.586457 140 99 56 0
-86.362152 -72.538170 -0.233950 140 99 56 0
-77.550171 94.253677 -0.951119 140 99 56 0
-23.405409 -66.251213 -3.555862 140 99 56 0
80.084816 38.679203 0.877699 140 99 56 0
31.106096 11.986228 5.629451 140 99 56 0
108.734505 106.694977 -1.182422 140 99 56 0
-41.149525 37.491905 -5.844389 140 99 56 0
84.473640 52.731289 -0.785641 140 99 56 0
96.203064 47.505779 -1.633985 140 99 56 0
118.097359 27.978523 -2.517061 140 99 56 0
24.095247 -28.192503 4.256414 140 99 56 0
86.386261 -95.226089 1.841720 140 99 56 0
-88.059326 -31.718863 0.452963 140 99 56 0
46.838734 -19.897427 6.317267 140 99 56 0
1.309799 77.683784 -1.566738 140 99 56 0
-24.673916 59.589344 -4.704071 140 99 56 0
-9.103196 44.403538 -2.154711 140 99 56 0
99.701607 -83.628281 0.659566 140 99 56 0
-88.109413 -88.796310 0.244490 140 99 56 0
-0.225778 -53.218311 -0.930032 140 99 56 0
62.277229 69.267326 -0.274922 140 99 56 0
104.074890 -23.958059 0.807888 140 99 56 0
-30.894806 10.208471 -2.528462 140 99 56 0
101.081612 -73.954002 0.358502 140 99 56 0
25.476276 -87.138687 1.739632 140 99 56 0
104.856651 -66.459747 0.090058 140 99 56 0
22.130697 94.519508 0.200863 140 99 56 0
66.773117 -75.893799 3.019419 140 99 56 0
30.975040 -57.629490 2.704890 140 99 56 0
-21.870598 88.484108 -2.143322 140 99 56 0
103.145271 -32.445053 0.819718 140 99 56 0
95.421059 -80.438110 1.000890 140 99 56 0
100.841888 -78.414726 0.581717 140 99 56 0
-2.777666 -91.227097 -0.856863 140 99 56 0
-72.724884 -26.938114 -1.164472 140 99 56 0
4.482582 56.086658 -1.125613 140 99 56 0
-35.323914 9.611256 -2.864108 140 99 56 0
31.309429 10.266306 5.733133 140 99 56 0
-22.131622 75.660034 -3.505707 140 99 56 0
35.636982 70.386444 0.258204 140 99 56 0
40.955711 -9.906193 6.479330 140 99 56 0
-72.541473 -103.316551 -0.414114 140 99 56 0
-32.242317 105.764618 -0.651510 140 99 56 0
-115.897575 52.799110 -2.030792 140 99 56 0
-90.879173 -104.379303 0.811508 140 99 56 0
15.315355 -70.926880 0.337555 140 99 56 0
116.312683 82.125603 -2.946401 140 99 56 0
72.141472 -9.251431 5.123916 140 99 56 0
45.301060 -25.064026 6.010914 140 99 56 0
1.374960 -59.957233 -1.166757 140 99 56 0
113.209236 -46.647182 -0.472745 140 99 56 0
-64.868454 -21.904398 -1.669915 140 99 56 0
-53.165298 -88.564156 -2.448457 140 99 56 0
94.682289 -97.569702 1.263380 140 99 56 0
81.581612 -26.698843 3.697867 140 99 56 0
-79.450462 -21.451439 -0.574824 140 99 56 0
-42.588001 -60.357433 -3.634165 140 99 56 0
-64.706268 106.025299 0.008830 140 99 56 0
-7.022107 90.806183 -1.245513 140 99 56 0
-49.516041 -74.113266 -3.288399 140 99 56 0
68.454262 -75.969780 2.981449 140 99 56 0
80.622406 51.774925 -0.331739 140 99 56 0
90.264420 -6.960626 2.744178 140 99 56 0
52.300079 8.071950 6.097772 140 99 56 0
-41.357567 -104.525757 -1.378554 140 99 56 0
-29.334393 102.325188 -1.034227 140 99 56 0
29.482758 -16.299406 5.668704 140 99 56 0
-4.850864 7.239264 1.476398 140 99 56 0
97.572060 -13.523875 1.741334 140 99 56 0
-72.090080 -79.266510 -1.491253 140 99 56 0
63.507557 -38.788925 4.763502 140 99 56 0
10.300747 -9.542873 3.870603 140 99 56 0
-74.543304 -84.058151 -1.179287 140 99 56 0
-53.619946 -65.089066 -3.081304 140 99 56 0
-22.422684 97.838478 -1.304152 140 99 56 0
-84.660484 33.178547 -4.862241 140 99 56 0
-76.777122 59.096207 -5.554507 140 99 56 0
119.639854 -103.441597 -0.428316 140 99 56 0
-21.399107 -71.931641 -3.264787 140 99 56 0
-18.884171 -11.623670 -0.294180 140 99 56 0
-68.187294 -33.084770 -1.457440 140 99 56 0
-16.590769 -24.173004 -0.606618 140 99 56 0
-39.580513 99.152412 -1.352147 140 99 56 0
23.496006 -87.656479 1.777193 140 99 56 0
-39.103607 -109.626198 -0.958646 140 99 56 0
54.526642 9.038081 6.068983 140 99 56 0
27.795746 -12.208487 5.625346 140 99 56 0
19.516747 -28.541159 3.650696 140 99 56 0
86.446846 -39.213219 2.649110 140 99 56 0
60.905403 68.640320 -0.008582 140 99 56 0
55.376751 21.392595 5.059084 140 99 56 0
-21.788910 60.237289 -4.156979 140 99 56 0
111.248566 12.723972 -0.853036 140 99 56 0
-62.365662 -71.721405 -2.488723 140 99 56 0
-49.932800 -100.618065 -1.668159 140 99 56 0
-27.419531 -40.084480 -2.624723 140 99 56 0
-107.653397 34.112263 -2.244968 140 99 56 0
97.285461 45.647308 -1.573061 140 99 56 0
9.730433 -74.875298 -0.354483 140 99 56 0
14.538086 -59.625351 0.578875 140 99 56 0
-7.199438 -18.212784 1.060953 140 99 56 0
54.929131 60.618958 0.683242 140 99 56 0
58.946495 -25.824287 5.728954 140 99 56 0
19.881048 -95.985390 1.876324 140 99 56 0
60.986191 -25.772217 5.697765 140 99 56 0
64.023598 47.332081 1.474849 140 99 56 0
87.564850 -66.238373 1.761722 140 99 56 0
26.608406 32.132305 3.319752 140 99 56 0
47.252125 95.049919 0.266422 140 99 56 0
14.310768 70.026062 -0.815324 140 99 56 0
-83.362473 -13.388004 -0.549373 140 99 56 0
-23.446255 51.189579 -4.524853 140 99 56 0
-65.704514 23.158617 -5.277806 140 99 56 0
76.920395 98.627869 -0.660887 140 99 56 0
-115.473473 -23.745575 2.469342 140 99 56 0
39.079208 -94.875549 3.105743 140 99 56 0
14.869122 85.527771 -0.480590 140 99 56 0
76.025124 -24.080898 4.504452 140 99 56 0
-33.362724 -10.462644 -1.825188 140 99 56 0
33.515644 -48.475037 3.465550 140 99 56 0
9.365193 -41.371593 1.247630 140 99 56 0
-87.505554 -7.171918 -0.590018 140 99 56 0
-115.688293 -57.312199 1.939199 140 99 56 0
-35.174355 62.027687 -5.366656 140 99 56 0
-94.333961 -100.539894 0.887081 140 99 56 0
88.400063 79.495125 -1.944447 140 99 56 0
-78.928032 60.509644 -5.453260 140 99 56 0
-72.307571 80.627083 -3.370623 140 99 56 0
-26.169512 70.507370 -4.168723 140 99 56 0
-91.798981 -24.371300 0.652672 140 99 56 0
60.557171 -92.669037 3.256541 140 99 56 0
55.311024 105.093781 0.699013 140 99 56 0
91.828903 -83.447655 1.270808 140 99 56 0
-111.674721 -20.677557 2.268809 140 99 56 0
3.134835 28.556255 0.911800 140 99 56 0
-18.884417 -58.043095 -3.143404 140 99 56 0
31.152735 96.694435 0.478597 140 99 56 0
-62.174702 -12.465338 -2.063742 140 99 56 0
-21.976301 41.696861 -3.907547 140 99 56 0
-34.513519 69.945145 -4.779368 140 99 56 0
-16.886539 -109.862923 -0.028710 140 99 56 0
-26.210392 56.359249 -4.811566 140 99 56 0
-115.054062 -39.469643 2.441079 140 99 56 0
-25.146881 73.963409 -3.903748 140 99 56 0
11.961999 -50.057495 0.921304 140 99 56 0
-85.420097 103.793007 0.739369 140 99 56 0
9.494067 -26.754257 2.629447 140 99 56 0
63.521362 -78.743721 3.253044 140 99 56 0
48.436539 11.055252 6.017541 140 99 56 0
-30.650808 -74.524910 -3.578014 140 99 56 0
-43.180222 50.102360 -6.282329 140 99 56 0
-116.740395 68.111176 -1.462164 140 99 56 0
-107.353683 27.882811 -1.683767 140 99 56 0
78.186310 -9.646055 4.362289 140 99 56 0
32.479797 77.162399 0.039240 140 99 56 0
55.967442 73.423470 0.019388 140 99 56 0
-62.939819 67.723190 -5.422202 140 99 56 0
62.400227 59.880283 0.421158 140 99 56 0
57.342896 -27.483284 5.782926 140 99 56 0
106.346107 94.535950 -2.032120 140 99 56 0
-112.384750 -0.644445 1.517640 140 99 56 0
-25.207424 44.722473 -4.415070 140 99 56 0
-37.590775 -37.677204 -2.728070 140 99 56 0
-49.851311 -36.991257 -2.496400 140 99 56 0
88.670021 -103.894188 1.598637 140 99 56 0
27.622124 57.464275 0.761831 140 99 56 0
41.176056 61.339039 0.808921 140 99 56 0
34.541794 -0.743510 6.391896 140 99 56 0
24.427340 68.598869 -0.136369 140 99 56 0
-46.377224 -71.590050 -3.482142 140 99 56 0
79.468117 -62.278522 2.450414 140 99 56 0
12.339328 101.450287 0.413843 140 99 56 0
3.978505 -55.705540 -0.621823 140 99 56 0
3.681947 -15.779989 2.612415 140 99 56 0
-90.204834 -92.996536 0.416924 140 99 56 0
32.954254 -16.859959 5.959570 140 99 56 0
76.218132 -54.758175 3.038252 140 99 56 0
103.920090 37.703392 -1.732500 140 99 56 0
51.631962 104.949318 0.738359 140 99 56 0
-31.586864 -61.201534 -3.614284 140 99 56 0
21.600578 104.726257 0.841471 140 99 56 0
110.837730 -47.446674 -0.330537 140 99 56 0
-33.852547 91.301765 -2.276099 140 99 56 0
63.343712 109.157379 0.712308 140 99 56 0
77.491142 61.030914 -0.708648 140 99 56 0
109.142380 -68.562119 -0.218754 140 99 56 0
-32.034256 71.959183 -4.396608 140 99 56 0
21.169468 -64.829132 1.229533 140 99 56 0
71.230698 40.196926 1.762211 140 99 56 0
-26.110346 43.641499 -4.631505 140 99 56 0
-101.488800 -101.267624 1.322025 140 99 56 0
-20.408367 84.262329 -2.586053 140 99 56 0
83.038940 103.716759 -0.592761 140 99 56 0
-83.090881 44.540260 -5.567018 140 99 56 0
-27.469234 29.937569 -3.587274 140 99 56 0
-70.502571 -20.482355 -1.355674 140 99 56 0
42.072517 -46.091160 4.269003 140 99 56 0
-1.651536 51.640984 -1.793071 140 99 56 0
55.412029 -102.480904 3.724929 140 99 56 0
51.320255 -86.373909 3.222258 140 99 56 0
-33.530811 -7.340315 -1.735190 140 99 56 0
38.484257 -93.067787 3.094443 140 99 56 0
-47.254589 -85.039467 -2.808430 140 99 56 0
-110.740227 28.899710 -1.372376 140 99 56 0
78.691315 -16.160612 4.183236 140 99 56 0
119.833183 3.023428 -1.261024 140 99 56 0
99.507698 -50.694534 0.746624 140 99 56 0
100.855598 -1.713146 1.071255 140 99 56 0
79.434570 -48.171780 3.082216 140 99 56 0
-87.495941 30.668343 -4.472961 140 99 56 0
-19.065918 -98.916985 -1.205481 140 99 56 0
-19.602852 104.857185 -0.453382 140 99 56 0
-25.297863 95.493492 -1.631312 140 99 56 0
117.282997 20.166929 -1.906260 140 99 56 0
24.049660 76.792122 -0.225811 140 99 56 0
-77.314140 25.645102 -4.963521 140 99 56 0
-29.727743 -104.310493 -1.280346 140 99 56 0
14.783153 -31.046515 2.957229 140 99 56 0
40.827106 -34.005627 5.254484 140 99 56 0
68.807823 -72.390091 3.005938 140 99 56 0
36.751526 -103.207489 3.613401 140 99 56 0
65.170998 -98.798904 3.325564 140 99 56 0
22.733833 -63.131977 1.545646 140 99 56 0
-118.504944 -82.463165 1.981181 140 99 56 0
98.856766 -35.538761 1.254432 140 99 56 0
19.432604 -9.811975 4.874584 140 99 56 0
-44.857018 20.499369 -4.616076 140 99 56 0
-9.009953 97.146255 -0.854640 140 99 56 0
-56.833717 -70.178467 -3.032121 140 99 56 0
-77.809654 54.088055 -5.886913 140 99 56 0
101.241905 13.067284 0.415494 140 99 56 0
-0.302943 -46.353386 -0.594718 140 99 56 0
3.342413 -16.573191 2.405773 140 99 56 0
112.077957 -75.465187 -0.398069 140 99 56 0
-16.230570 -83.617294 -2.432589 140 99 56 0
-43.672218 -89.837685 -2.760478 140 99 56 0
-111.435036 -13.727378 2.161103 140 99 56 0
-77.127762 -6.704086 -1.411956 140 99 56 0
8.773346 -49.116844 0.414424 140 99 56 0
102.835541 -56.906731 0.123549 140 99 56 0
7.435842 -84.529381 -0.239046 140 99 56 0
5.094891 57.628513 -1.302266 140 99 56 0
58.069290 77.380821 -0.257445 140 99 56 0
-11.756009 -73.643829 -2.502743 140 99 56 0
49.294533 -85.575630 3.248965 140 99 56 0
-2.173973 -36.177746 0.133238 140 99 56 0
-113.571007 -60.531025 1.828630 140 99 56 0
19.094385 66.377365 -0.302235 140 99 56 0
-92.178856 74.153671 -2.923330 140 99 56 0
50.433796 100.681541 0.508759 140 99 56 0
59.579578 35.584465 3.120269 140 99 56 0
-13.981656 -14.174535 0.143380 140 99 56 0
-109.719490 90.280365 0.162793 140 99 56 0
61.988770 -45.149223 4.523623 140 99 56 0
91.018768 -5.072616 2.634415 140 99 56 0
-2.045956 -68.401039 -1.835189 140 99 56 0
94.923859 -14.627942 1.950357 140 99 56 0
74.517433 -100.177048 2.731405 140 99 56 0
-55.446507 -85.545334 -2.579333 140 99 56 0
6.172004 11.207426 2.784562 140 99 56 0
30.518591 -12.320380 5.944714 140 99 56 0
90.188927 -4.566828 2.632816 140 99 56 0
90.814407 5.926658 2.217965 140 99 56 0
-72.504807 70.591209 -4.803942 140 99 56 0
119.662994 3.163222 -1.208580 140 99 56 0
-44.944508 25.573139 -5.205789 140 99 56 0
-55.980217 -103.132454 -1.354733 140 99 56 0
-14.545413 -31.667801 -0.901927 140 99 56 0
37.081623 42.470638 2.752017 140 99 56 0
-119.407845 35.940907 -0.951856 140 99 56 0
58.950909 -61.368847 3.750193 140 99 56 0
-84.451912 -36.031368 -0.069625 140 99 56 0
-24.674084 -18.603424 -1.069680 140 99 56 0
-38.755089 82.766670 -3.491796 140 99 56 0
86.674995 -99.238663 1.787873 140 99 56 0
31.110428 -95.804459 2.795434 140 99 56 0
-20.639116 -11.655375 -0.484955 140 99 56 0
52.850327 -56.501877 4.059077 140 99 56 0
20.751007 -108.605255 2.899101 140 99 56 0
32.041920 18.912586 5.103378 140 99 56 0
119.032097 84.967506 -2.796885 140 99 56 0
24.972807 63.810959 0.120371 140 99 56 0
-92.201897 52.941528 -4.727892 140 99 56 0
-72.052719 -32.879749 -1.152197 140 99 56 0
-18.652889 -48.146690 -2.557553 140 99 56 0
-86.846039 -20.768780 0.021716 140 99 56 0
-60.219082 -103.610222 -1.104060 140 99 56 0
45.959885 -49.153019 4.353274 140 99 56 0
15.531029 40.321259 1.467793 140 99 56 0
-6.371785 66.207161 -2.543056 140 99 56 0
35.335087 -2.167578 6.366356 140 99 56 0
-117.329391 -79.146011 1.966855 140 99 56 0
6.803323 19.763165 2.336704 140 99 56 0
19.809212 -73.306778 0.865659 140 99 56 0
-34.526978 49.864563 -5.612680 140 99 56 0
105.756653 86.154785 -2.504794 140 99 56 0
37.757885 -15.052888 6.393586 140 99 56 0
-78.736343 -66.542961 -0.942449 140 99 56 0
80.039444 -10.336690 4.101261 140 99 56 0
-41.949894 60.782795 -5.815388 140 99 56 0
36.116314 106.137932 1.003667 140 99 56 0
57.114494 -7.946752 6.491095 140 99 56 0
-54.441578 -56.154030 -3.003771 140 99 56 0
76.551735 28.296843 2.315753 140 99 56 0
37.121479 101.314087 0.786574 140 99 56 0
64.799385 -55.777077 3.810911 140 99 56 0
-29.744324 67.373695 -4.648445 140 99 56 0
-30.962191 -101.155678 -1.533980 140 99 56 0
-76.296486 31.158070 -5.453185 140 99 56 0
51.405590 -82.208420 3.299623 140 99 56 0
6.741517 84.511658 -1.022831 140 99 56 0
-32.033234 36.380753 -4.787885 140 99 56 0
90.250809 -60.611259 1.556958 140 99 56 0
80.934547 108.852646 -0.068090 140 99 56 0
52.140507 -49.237442 4.413528 140 99 56 0
-84.713776 -13.094123 -0.452612 140 99 56 0
109.791931 -61.281803 -0.385704 140 99 56 0
18.772741 -100.410721 2.094132 140 99 56 0
-72.473831 -25.425049 -1.173892 140 99 56 0
-32.768669 -80.611588 -3.336673 140 99 56 0
-91.575554 68.953941 -3.561104 140 99 56 0
88.354073 62.279064 -1.726826 140 99 56 0
71.781380 22.195955 3.535091 140 99 56 0
81.515289 95.259277 -0.960277 140 99 56 0
84.395103 8.530131 2.985111 140 99 56 0
-18.562014 57.853016 -3.903900 140 99 56 0
77.304443 14.028770 3.481933 140 99 56 0
55.017811 98.383896 0.312524 140 99 56 0
90.946655 -81.966942 1.373363 140 99 56 0
2.762911 -85.498001 -0.680652 140 99 56 0
29.636223 -40.632572 3.917829 140 99 56 0
-118.467812 66.850807 -1.315913 140 99 56 0
67.008286 81.940247 -0.732887 140 99 56 0
-84.166908 103.392693 0.545565 140 99 56 0
-79.302605 87.611885 -1.927427 140 99 56 0
-10.937217 -17.711020 0.476529 140 99 56 0
69.598381 -104.832664 3.098404 140 99 56 0
-36.898998 74.815567 -4.349229 140 99 56 0
31.809956 -53.600910 3.000230 140 99 56 0
106.448036 -50.443958 0.080955 140 99 56 0
-109.607788 -53.423824 1.706441 140 99 56 0
111.810219 -85.552818 -0.224562 140 99 56 0
-34.191956 -96.045486 -2.099574 140 99 56 0
72.022095 -99.288284 2.873652 140 99 56 0
49.327831 66.014099 0.431975 140 99 56 0
-7.969642 80.824127 -2.175290 140 99 56 0
-76.181572 42.649868 -6.116328 140 99 56 0
-65.683884 -68.155685 -2.193637 140 99 56 0
-44.272266 -39.976608 -2.833081 140 99 56 0
17.640085 31.896658 2.626357 140 99 56 0
12.664604 -9.071867 4.009914 140 99 56 0
-30.760214 64.935631 -4.920776 140 99 56 0
-80.011604 81.135651 -2.827024 140 99 56 0
37.015652 66.225830 0.489560 140 99 56 0
1.497869 -23.945412 1.719167 140 99 56 0
-19.615631 60.710991 -4.031981 140 99 56 0
74.252747 66.893707 -0.841991 140 99 56 0
-81.789566 -12.373150 -0.808581 140 99 56 0
9.949042 102.566086 0.241118 140 99 56 0
-38.463169 -42.661861 -3.058543 140 99 56 0
26.084263 52.674274 1.159352 140 99 56 0
-11.829317 27.251066 -1.275927 140 99 56 0
32.852009 -46.403652 3.667245 140 99 56 0
47.298668 -79.661880 3.178215 140 99 56 0
60.574314 -103.810982 3.507448 140 99 56 0
41.164711 52.648415 1.641062 140 99 56 0
-45.115269 -97.759430 -1.898888 140 99 56 0
90.163239 64.994690 -1.942321 140 99 56 0
-9.891823 -29.950401 -0.243907 140 99 56 0
59.789932 82.266731 -0.174727 140 99 56 0
11.767441 28.462721 2.306181 140 99 56 0
77.993500 71.986778 -1.226452 140 99 56 0
95.317139 -67.426620 0.999003 140 99 56 0
-88.268799 -64.826195 0.010618 140 99 56 0
-33.511120 -100.623604 -1.695438 140 99 56 0
32.121487 15.171372 5.513160 140 99 56 0
-35.036282 78.054153 -3.935204 140 99 56 0
-68.045990 78.977158 -3.901511 140 99 56 0
-88.226921 -69.923721 -0.016195 140 99 56 0
-115.251511 75.162918 -1.068642 140 99 56 0
71.593246 82.810181 -0.877227 140 99 56 0
-60.647480 -53.874496 -2.591347 140 99 56 0
94.102951 -81.440071 1.139210 140 99 56 0
23.420797 62.238064 0.265781 140 99 56 0
-34.338814 -84.070526 -3.069670 140 99 56 0
79.301361 86.618477 -1.293389 140 99 56 0
24.573994 -98.968384 2.505885 140 99 56 0
-71.699539 7.631666 -3.192658 140 99 56 0
82.493088 22.567516 2.146955 140 99 56 0
89.018646 -75.872482 1.574140 140 99 56 0
-69.246231 47.881168 -6.581501 140 99 56 0
112.982513 -88.344002 -0.333237 140 99 56 0
-62.046837 9.363491 -3.871627 140 99 56 0
-114.691757 50.614113 -2.090948 140 99 56 0
-31.613842 51.435276 -5.353389 140 99 56 0
-110.747040 62.098000 -2.290886 140 99 56 0
107.199593 90.470222 -2.307522 140 99 56 0
-56.093895 -67.874687 -2.951523 140 99 56 0
-35.070148 -82.432007 -3.231133 140 99 56 0
-10.604291 -6.439699 0.819795 140 99 56 0
-92.666733 8.230468 -1.572254 140 99 56 0
-3.880352 10.592947 1.241696 140 99 56 0
-65.037926 -7.064587 -2.295077 140 99 56 0
80.108681 -54.059528 2.725575 140 99 56 0
64.125908 -100.880386 3.306129 140 99 56 0
-92.855606 43.601921 -4.617669 140 99 56 0
-114.685707 -80.901222 1.856386 140 99 56 0
66.161118 83.796860 -0.610601 140 99 56 0
-7.068481 -49.593479 -1.508850 140 99 56 0
109.985596 -75.354797 -0.314820 140 99 56 0
7.047968 58.602573 -1.073747 140 99 56 0
19.239262 85.170021 -0.380623 140 99 56 0
-115.645714 46.658932 -1.843757 140 99 56 0
-117.411583 -17.364244 2.682979 140 99 56 0
-14.617530 74.954651 -2.931211 140 99 56 0
102.176361 80.763977 -2.558830 140 99 56 0
-78.936684 71.037697 -4.127637 140 99 56 0
30.830275 -67.134399 2.236095 140 99 56 0
39.072674 -8.794361 6.431502 140 99 56 0
77.599068 -106.509277 2.477920 140 99 56 0
55.856354 89.940285 -0.114809 140 99 56 0
-84.439178 68.268578 -4.219870 140 99 56 0
74.024490 47.604847 0.548984 140 99 56 0
-119.631622 45.727470 -1.374276 140 99 56 0
-52.786728 -68.883537 -3.265200 140 99 56 0
76.917198 18.387232 3.307696 140 99 56 0
41.529800 -90.020981 3.186414 140 99 56 0
-67.935661 32.809227 -6.037468 140 99 56 0
-73.845100 34.953262 -5.936980 140 99 56 0
14.634627 22.692232 3.056560 140 99 56 0
-7.690671 62.375816 -2.752950 140 99 56 0
-32.328316 -2.997823 -1.834204 140 99 56 0
108.944229 89.880020 -2.262555 140 99 56 0
-1.031476 73.938011 -2.017573 140 99 56 0
1.318715 100.388481 -0.151541 140 99 56 0
54.949741 72.551727 -0.004098 140 99 56 0
79.549858 95.102661 -0.844689 140 99 56 0
31.823595 33.121197 3.601391 140 99 56 0
72.584213 -109.927139 2.961553 140 99 56 0
15.607581 19.062931 3.657337 140 99 56 0
-39.633366 -41.253338 -3.061474 140 99 56 0
-35.576801 -50.812092 -3.399896 140 99 56 0
-36.494576 -2.261186 -2.106141 140 99 56 0
117.306709 9.633081 -1.293438 140 99 56 0
-40.879215 106.858521 -0.409124 140 99 56 0
-44.698826 -97.715042 -1.920322 140 99 56 0
-81.181877 -81.037041 -0.476391 140 99 56 0
35.537968 -52.840828 3.444084 140 99 56 0
-84.703148 80.933228 -2.538470 140 99 56 0
24.712263 88.178085 -0.052616 140 99 56 0
63.545479 -69.507217 3.262829 140 99 56 0
-13.342479 41.479145 -2.718829 140 99 56 0
-43.218925 -52.133354 -3.398690 140 99 56 0
-70.960648 59.126263 -6.030065 140 99 56 0
-25.035904 -15.245946 -1.078705 140 99 56 0
67.728104 29.184387 3.219472 140 99 56 0
-24.106375 73.436966 -3.752202 140 99 56 0
111.405434 -58.622334 -0.346851 140 99 56 0
30.259626 -3.565934 6.047377 140 99 56 0
34.764122 -11.757192 6.217766 140 99 56 0
94.600822 -83.456955 1.085262 140 99 56 0
-82.416016 75.402237 -3.467306 140 99 56 0
62.652592 93.740646 -0.208668 140 99 56 0
-90.072601 53.525047 -4.762398 140 99 56 0
96.879768 -104.679832 1.009290 140 99 56 0
-90.839355 88.992989 -0.852078 140 99 56 0
65.663040 -28.526001 5.265328 140 99 56 0
86.484108 72.785065 -1.793992 140 99 56 0
-14.239891 -92.343544 -1.611926 140 99 56 0
11.524294 -91.893845 0.794114 140 99 56 0
-111.314499 -34.294956 2.293206 140 99 56 0
27.377983 92.093338 0.322242 140 99 56 0
55.046432 88.035080 -0.069657 140 99 56 0
115.917107 -35.116920 -0.469770 140 99 56 0
-8.036586 -60.683735 -2.154551 140 99 56 0
7.731257 -96.511658 0.723209 140 99 56 0
38.064037 60.626099 0.819644 140 99 56 0
-64.149956 28.420229 -5.866132 140 99 56 0
67.784889 108.686790 0.384959 140 99 56 0
90.601013 -24.015541 2.598337 140 99 56 0
43.069344 -106.437111 3.696682 140 99 56 0
69.818871 -15.927825 5.291051 140 99 56 0
23.772045 37.357635 2.575372 140 99 56 0
11.680135 -33.424290 2.255885 140 99 56 0
-0.557353 -13.544819 2.009392 140 99 56 0
73.768547 59.729218 -0.332120 140 99 56 0
116.108505 70.832817 -3.239596 140 99 56 0
12.923965 11.668862 3.759379 140 99 56 0
44.099251 -0.885508 6.526438 140 99 56 0
-28.788649 -8.421124 -1.428142 140 99 56 0
-87.868385 38.507786 -4.957065 140 99 56 0
-39.515545 -50.727058 -3.382771 140 99 56 0
20.134331 -103.682381 2.503872 140 99 56 0
-116.453590 1.305301 1.773637 140 99 56 0
35.348549 42.652439 2.604800 140 99 56 0
-119.316345 32.344814 -0.728697 140 99 56 0
-34.292419 -75.065865 -3.604939 140 99 56 0
-92.765579 -10.371284 0.115325 140 99 56 0
-65.159050 11.257550 -4.135634 140 99 56 0
-74.204964 -73.124771 -1.344685 140 99 56 0
81.306564 -99.712234 2.116477 140 99 56 0
-40.323715 75.554123 -4.392303 140 99 56 0
82.552803 61.376610 -1.159992 140 99 56 0
101.626534 13.708912 0.336265 140 99 56 0
72.101784 -103.437134 2.907838 140 99 56 0
-43.304359 -24.082607 -2.212670 140 99 56 0
-13.832819 32.747456 -1.939003 140 99 56 0
-116.762878 -35.103214 2.587344 140 99 56 0
-37.170124 -23.002523 -1.978835 140 99 56 0
86.358070 50.114025 -0.897792 140 99 56 0
42.068768 16.456120 5.690981 140 99 56 0
86.978477 57.138924 -1.327312 140 99 56 0
-107.599243 28.065657 -1.780063 140 99 56 0
-82.760635 -87.820534 -0.247579 140 99 56 0
-2.616737 -96.639503 -0.302377 140 99 56 0
51.314911 -103.629150 3.781269 140 99 56 0
59.661991 49.941662 1.521437 140 99 56 0
94.763130 -7.147998 2.014139 140 99 56 0
86.270851 -5.615509 3.165067 140 99 56 0
-4.998457 38.995869 -1.193633 140 99 56 0
119.451981 -52.944729 -1.022913 140 99 56 0
80.465340 65.990799 -1.198586 140 99 56 0
-52.421059 -80.173355 -2.834146 140 99 56 0
-91.664742 44.837952 -4.684268 140 99 56 0
60.126629 -30.566080 5.509124 140 99 56 0
97.223465 90.676743 -1.866519 140 99 56 0
1.845907 -98.739899 0.373276 140 99 56 0
-110.335289 89.270729 0.187676 140 99 56 0
50.144707 -14.745421 6.513900 140 99 56 0
-105.037445 -102.640465 1.462261 140 99 56 0
-2.846190 107.480911 0.397171 140 99 56 0
70.578865 -103.398796 2.973434 140 99 56 0
43.590698 95.039818 0.471315 140 99 56 0
-115.226311 104.705742 1.830659 140 99 56 0
-62.533714 -74.926010 -2.386603 140 99 56 0
-83.142227 -98.776314 0.013851 140 99 56 0
99.410873 91.074997 -1.931230 140 99 56 0
-36.760357 61.457291 -5.594090 140 99 56 0
75.353851 -3.665802 4.722940 140 99 56 0
62.728027 -79.768471 3.146153 140 99 56 0
41.688469 -36.296253 5.166780 140 99 56 0
8.380713 17.584118 2.682866 140 99 56 0
87.849976 71.959106 -1.895327 140 99 56 0
-1.678678 69.274574 -2.071166 140 99 56 0
10.708964 -53.754417 0.323922 140 99 56 0
27.982714 82.413757 -0.080884 140 99 56 0
-87.402245 -84.972336 0.121123 140 99 56 0
-25.123232 64.778992 -4.482901 140 99 56 0
-78.975601 99.052330 -0.195151 140 99 56 0
111.617638 73.085518 -3.270309 140 99 56 0
-114.091232 17.051968 0.139070 140 99 56 0
-72.637825 -77.535416 -1.550306 140 99 56 0
38.453144 62.823395 0.780789 140 99 56 0
-22.833506 -6.561436 -0.766977 140 99 56 0
41.186890 -60.777142 3.426485 140 99 56 0
102.825470 96.646057 -1.759262 140 99 56 0
4.472463 64.952690 -1.473312 140 99 56 0
3.310417 -49.670780 -0.346006 140 99 56 0
80.693672 84.156967 -1.383574 140 99 56 0
-51.642620 -36.122295 -2.511697 140 99 56 0
-92.651848 -93.283424 0.629207 140 99 56 0
-65.834465 10.275126 -3.760411 140 99 56 0
-77.698418 -109.350426 0.019941 140 99 56 0
-29.598797 78.754601 -3.673676 140 99 56 0
76.586700 57.113552 -0.265279 140 99 56 0
52.136578 59.566917 0.773421 140 99 56 0
15.914577 -87.425903 0.940014 140 99 56 0
15.802230 -68.509361 0.507743 140 99 56 0
-5.419794 89.976196 -1.192449 140 99 56 0
13.255623 -42.211910 1.624690 140 99 56 0
-80.918869 -75.949478 -0.867117 140 99 56 0
-72.856522 75.008827 -4.107435 140 99 56 0
31.521679 74.533188 -0.051125 140 99 56 0
-29.578611 58.329784 -5.045097 140 99 56 0
66.302032 -33.715080 4.975166 140 99 56 0
8.229548 -16.894167 3.105707 140 99 56 0
-73.922470 -11.990207 -1.436670 140 99 56 0
69.746635 -13.352183 5.422518 140 99 56 0
-6.590207 101.270912 -0.339375 140 99 56 0
23.863033 85.344276 -0.116585 140 99 56 0
-33.800907 -4.839600 -1.987415 140 99 56 0
-30.884733 -99.649529 -1.856337 140 99 56 0
107.389145 -85.522598 0.077412 140 99 56 0
6.279775 100.001495 0.047933 140 99 56 0
19.579563 31.018826 2.884329 140 99 56 0
40.118752 -82.696724 2.873498 140 99 56 0
3.794830 -33.241070 1.218127 140 99 56 0
47.013454 -107.865105 3.853373 140 99 56 0
112.126717 -34.968639 -0.188532 140 99 56 0
-18.955454 53.093517 -3.890447 140 99 56 0
59.243523 -77.907990 3.338477 140 99 56 0
111.690834 11.292611 -0.768357 140 99 56 0
-41.322643 -65.423714 -3.552068 140 99 56 0
-111.071907 -80.968651 1.811323 140 99 56 0
-25.351450 -98.459892 -1.681893 140 99 56 0
-32.774624 103.749512 -0.739247 140 99 56 0
55.298828 -15.758217 6.237376 140 99 56 0
-117.616997 -10.915809 2.427722 140 99 56 0
67.622833 -79.591660 3.130931 140 99 56 0
-1.487529 22.269573 0.897852 140 99 56 0
-107.466705 -53.660557 1.713250 140 99 56 0
-63.153946 -29.115822 -1.765570 140 99 56 0
119.041458 88.994362 -2.525238 140 99 56 0
-86.448418 -91.331223 0.110481 140 99 56 0
16.797419 11.899689 4.312847 140 99 56 0
-87.744995 72.307205 -3.572166 140 99 56 0
-16.950846 -71.085762 -3.101668 140 99 56 0
-26.498608 -48.000534 -2.996727 140 99 56 0
-10.126798 9.692195 0.415677 140 99 56 0
-5.927035 -31.597925 0.030890 140 99 56 0
-36.788998 -82.933434 -3.174066 140 99 56 0
71.945038 38.814720 1.789951 140 99 56 0
-27.147141 -56.427414 -3.444726 140 99 56 0
-26.552322 53.013985 -4.853802 140 99 56 0
6.093778 78.640945 -1.308141 140 99 56 0
37.776199 33.918266 3.769715 140 99 56 0
43.594154 83.569550 0.018906 140 99 56 0
-89.794044 -92.378891 0.346288 140 99 56 0
7.569823 -20.316189 2.675791 140 99 56 0
69.296059 -17.720778 5.308394 140 99 56 0
37.776768 77.153549 0.004345 140 99 56 0
-31.465969 -65.030304 -3.675896 140 99 56 0
-6.536924 -92.999886 -0.997400 140 99 56 0
18.774553 35.774582 2.286563 140 99 56 0
102.746994 -63.357986 0.380046 140 99 56 0
-78.217026 103.716454 0.224951 140 99 56 0
4.106766 -5.948184 2.904690 140 99 56 0
90.999046 -109.656998 1.434477 140 99 56 0
8.375595 36.288002 0.949637 140 99 56 0
103.077751 1.009149 0.830468 140 99 56 0
80.823517 99.370979 -0.802754 140 99 56 0
16.581980 -42.871861 2.076816 140 99 56 0
109.296806 -55.533623 -0.184400 140 99 56 0
75.324791 -61.217335 2.855133 140 99 56 0
-13.929713 100.994057 -0.568689 140 99 56 0
2.376213 -15.507652 2.427520 140 99 56 0
-113.507393 -14.348317 2.311566 140 99 56 0
64.195198 -69.893585 3.254890 140 99 56 0
96.637184 -52.736908 1.125075 140 99 56 0
-105.013428 -103.540367 1.701697 140 99 56 0
-87.778511 -72.540154 -0.000855 140 99 56 0
-50.804253 -89.273712 -2.509429 140 99 56 0
55.867203 17.485926 5.280036 140 99 56 0
-37.785339 73.797981 -4.610119 140 99 56 0
65.106300 69.499840 -0.233250 140 99 56 0
66.477760 -59.179939 3.565137 140 99 56 0
4.798335 -62.958534 -0.874972 140 99 56 0
93.381248 -8.472692 2.290880 140 99 56 0
24.320419 68.069450 -0.038107 140 99 56 0
19.198502 -69.677628 0.885071 140 99 56 0
