ply
format ascii 1.0
element vertex 1125
property float x
property float y
property float z
property uchar red
property uchar green
property uchar blue
property int label
end_header
-16.702517 -16.166941 6.069955 13 115 31 3
-81.124336 -82.499954 3.824875 13 115 31 3
-66.319908 70.273315 -4.288467 13 115 31 3
27.167856 92.376556 1.693933 13 115 31 3
98.121849 -62.460934 8.011563 13 115 31 3
95.332253 -14.740415 3.727498 13 115 31 3
36.639431 80.478912 5.601305 13 115 31 3
-79.244904 -83.271217 -0.678042 13 115 31 3
84.340698 -19.352964 5.832969 13 115 31 3
41.305164 -80.840919 12.023882 13 115 31 3
83.968697 -18.937391 6.476653 13 115 31 3
113.011383 -84.667000 7.139562 13 115 31 3
-13.307330 102.382965 3.821995 13 115 31 3
-11.330331 104.172859 4.077916 13 115 31 3
113.213730 -84.505280 -0.340626 13 115 31 3
-25.848946 -8.038424 7.265733 13 115 31 3
115.602226 -44.253494 3.747930 13 115 31 3
115.798096 -41.944580 3.396404 13 115 31 3
82.335297 -17.307779 8.718018 13 115 31 3
-5.181003 -53.530159 -0.129682 13 115 31 3
49.801544 -97.666252 5.325760 13 115 31 3
-26.824057 -6.389941 -0.881754 13 115 31 3
-6.726312 -105.019104 5.888184 13 115 31 3
-62.778255 -8.129753 -0.738717 13 115 31 3
-68.082306 32.687519 -3.883743 13 115 31 3
-11.271487 102.651176 3.297898 13 115 31 3
49.670200 -110.492004 8.320286 13 115 31 3
-11.658060 102.934853 0.553014 13 115 31 3
-68.007607 32.548794 -5.969420 13 115 31 3
-85.095482 -79.352432 7.223977 13 115 31 3
100.728584 -62.182510 5.136093 13 115 31 3
-11.725016 103.879585 2.796131 13 115 31 3
-13.373331 102.693199 3.877451 13 115 31 3
-67.046150 69.055389 0.967478 13 115 31 3
-12.221678 103.091202 1.303610 13 115 31 3
82.616272 -18.453005 9.272741 13 115 31 3
-12.053361 103.353409 2.943498 13 115 31 3
86.148872 -17.325174 9.108671 13 115 31 3
116.730507 -42.207008 3.508697 13 115 31 3
-84.304703 -78.195946 6.813833 13 115 31 3
50.010422 -110.189354 4.109246 13 115 31 3
39.562958 84.173500 7.715443 13 115 31 3
115.521812 -41.644703 2.595046 13 115 31 3
113.617142 -84.516296 6.252517 13 115 31 3
39.302193 85.990135 7.103164 13 115 31 3
-15.364852 -17.421148 3.558212 13 115 31 3
-27.187691 -8.376667 6.596766 13 115 31 3
-16.856339 -17.790018 7.748462 13 115 31 3
-38.386032 -49.734005 4.416330 13 115 31 3
113.179848 -84.611969 0.700965 13 115 31 3
63.431679 44.322487 8.750909 13 115 31 3
65.002304 42.585270 4.704894 13 115 31 3
49.442104 -110.788925 10.326439 13 115 31 3
27.055492 92.116905 1.258014 13 115 31 3
97.988991 -61.754539 1.560831 13 115 31 3
23.139254 49.810043 1.970695 13 115 31 3
113.681808 -43.980984 3.740235 13 115 31 3
114.193260 -43.186596 1.007704 13 115 31 3
-13.326437 103.862961 3.991130 13 115 31 3
-15.343803 -17.404593 1.983922 13 115 31 3
116.055702 -42.201927 2.420880 13 115 31 3
48.463875 -108.758194 7.723123 13 115 31 3
38.901718 82.985756 3.291554 13 115 31 3
49.247684 -109.651154 5.892802 13 115 31 3
-12.254822 103.729530 5.149856 13 115 31 3
-12.237750 103.113907 0.491955 13 115 31 3
114.543594 -42.796230 -0.288716 13 115 31 3
113.037201 -84.355804 9.111238 13 115 31 3
-66.591934 70.397461 -3.443304 13 115 31 3
56.324810 -91.881798 8.725215 13 115 31 3
51.977314 30.032450 5.044626 13 115 31 3
26.399742 92.542763 1.814857 13 115 31 3
-53.841599 -47.553402 -2.520916 13 115 31 3
100.088066 -62.208096 6.463453 13 115 31 3
94.131439 -15.057851 7.091883 13 115 31 3
-15.093679 -16.929312 0.822744 13 115 31 3
2.407439 -15.181886 7.777182 13 115 31 3
115.028160 -42.346573 3.334827 13 115 31 3
52.114220 -111.638702 8.525002 13 115 31 3
49.377892 -111.711998 8.019675 13 115 31 3
-26.159859 -4.654109 5.271248 13 115 31 3
-10.909184 102.667519 4.877057 13 115 31 3
-26.004763 57.357216 -2.925282 13 115 31 3
-108.812538 -44.267513 3.230829 13 115 31 3
39.058605 81.983253 7.055586 13 115 31 3
-109.790977 -43.701298 8.047132 13 115 31 3
52.269413 30.266273 5.621410 13 115 31 3
-10.802487 103.507217 3.632545 13 115 31 3
-79.324615 -83.311363 -0.267297 13 115 31 3
-68.515816 70.426933 1.446862 13 115 31 3
114.928940 -43.758949 3.827650 13 115 31 3
-12.362735 102.084793 4.805693 13 115 31 3
-15.207347 -15.029069 7.124313 13 115 31 3
98.580673 -59.587116 5.635417 13 115 31 3
51.523384 30.117470 5.547854 13 115 31 3
-40.876774 -50.073048 5.041209 13 115 31 3
-13.878654 -15.303372 5.867315 13 115 31 3
-68.175125 32.235958 -4.722513 13 115 31 3
-16.781017 -17.811840 6.044452 13 115 31 3
-66.091499 68.808060 -1.272682 13 115 31 3
-24.871082 -6.772217 6.399916 13 115 31 3
100.239227 -62.454830 6.775348 13 115 31 3
-68.588058 32.744339 -5.480501 13 115 31 3
-25.958389 56.913265 -3.848740 13 115 31 3
66.103836 50.707146 6.416992 13 115 31 3
-15.108673 -17.522745 -0.048699 13 115 31 3
-67.802368 70.775566 2.706739 13 115 31 3
-12.113657 103.248344 2.269619 13 115 31 3
94.192688 -14.781439 2.904530 13 115 31 3
50.195538 -97.156975 3.739474 13 115 31 3
25.080658 93.870872 6.258978 13 115 31 3
-53.738159 -47.376972 0.278912 13 115 31 3
49.335964 -106.971603 8.011815 13 115 31 3
-15.129292 -19.181238 5.971313 13 115 31 3
-68.536072 32.209888 -4.877938 13 115 31 3
43.233627 -80.618553 5.416997 13 115 31 3
-11.706113 102.934517 2.001848 13 115 31 3
-13.197562 103.143341 3.934494 13 115 31 3
94.249481 -14.949626 8.144811 13 115 31 3
69.061523 -56.371147 9.015194 13 115 31 3
11.058960 56.994984 4.288168 13 115 31 3
-25.919533 57.314461 -1.590256 13 115 31 3
-12.042147 102.747429 -0.075551 13 115 31 3
-15.259049 -17.440290 0.493832 13 115 31 3
-67.468651 30.417479 -1.972988 13 115 31 3
-12.515850 103.638756 5.231370 13 115 31 3
-68.036095 32.629250 -5.323770 13 115 31 3
-12.729168 101.686890 4.516177 13 115 31 3
-83.106682 -80.549660 4.906360 13 115 31 3
-75.749611 82.359894 -2.527575 13 115 31 3
49.684437 -110.342819 4.879907 13 115 31 3
79.749908 -57.072681 6.281837 13 115 31 3
-16.107349 -15.690058 6.040910 13 115 31 3
9.008120 54.262928 5.565405 13 115 31 3
-67.405243 70.577087 -0.435169 13 115 31 3
-15.811527 11.857329 1.019737 13 115 31 3
-39.085594 -51.569241 -2.704029 13 115 31 3
-65.993660 32.387146 -1.595731 13 115 31 3
-68.686577 32.518433 -4.784183 13 115 31 3
-62.889141 89.744560 -1.592103 13 115 31 3
73.117027 -58.313129 6.698749 13 115 31 3
48.104961 -57.286949 11.376642 13 115 31 3
-68.397270 32.732567 0.598171 13 115 31 3
114.752838 -43.102623 0.662142 13 115 31 3
94.227936 -14.885002 10.070062 13 115 31 3
10.979388 57.647861 5.196888 13 115 31 3
10.968257 54.517498 8.244161 13 115 31 3
50.056973 -98.564857 8.306030 13 115 31 3
116.651604 -43.551937 2.293926 13 115 31 3
114.462921 -43.078495 4.428211 13 115 31 3
-10.984119 102.964378 4.886083 13 115 31 3
-15.730995 11.998685 6.900495 13 115 31 3
84.044174 -19.317196 6.139477 13 115 31 3
-14.835420 -17.304903 1.720804 13 115 31 3
47.324711 -110.758804 7.638238 13 115 31 3
43.252396 -80.815781 3.926287 13 115 31 3
26.409615 94.264656 5.067270 13 115 31 3
-15.681995 12.172357 0.119046 13 115 31 3
100.498367 -61.617512 5.473450 13 115 31 3
-66.367134 70.245216 -4.884922 13 115 31 3
-77.691750 -83.506088 5.491504 13 115 31 3
-12.123961 102.844322 0.745768 13 115 31 3
-85.287704 -81.978317 7.417181 13 115 31 3
55.664318 -89.247864 4.470586 13 115 31 3
49.639118 -97.536224 3.751179 13 115 31 3
-15.051036 -17.820341 6.209231 13 115 31 3
-11.406820 103.700096 4.019421 13 115 31 3
114.296349 -43.894131 3.626909 13 115 31 3
114.759621 -42.914322 -0.164511 13 115 31 3
66.591499 50.174583 5.956357 13 115 31 3
47.109646 -58.176163 4.844553 13 115 31 3
-12.055723 101.473946 3.765482 13 115 31 3
112.622810 -43.042419 2.969820 13 115 31 3
55.012562 -89.268639 4.728619 13 115 31 3
41.644047 81.318855 6.467945 13 115 31 3
51.535442 -111.178703 8.501843 13 115 31 3
63.995934 44.206600 8.523364 13 115 31 3
55.270405 -88.846565 4.108354 13 115 31 3
-14.394071 -15.969182 5.536942 13 115 31 3
-5.399340 -53.102081 0.931220 13 115 31 3
-89.325325 100.009621 0.611665 13 115 31 3
-67.032684 71.451088 -0.296243 13 115 31 3
51.994446 29.943474 5.679427 13 115 31 3
-26.623417 -7.885396 6.496346 13 115 31 3
49.723911 28.779781 9.842973 13 115 31 3
48.967400 -110.941780 9.583513 13 115 31 3
-11.633277 101.930496 3.072892 13 115 31 3
41.452232 83.722359 7.034664 13 115 31 3
46.853489 -58.660763 12.049098 13 115 31 3
64.395966 50.018047 6.344898 13 115 31 3
105.318832 13.072199 3.956279 13 115 31 3
49.333778 -108.398560 10.125951 13 115 31 3
11.112152 53.657124 6.140103 13 115 31 3
114.548141 -43.967628 3.085633 13 115 31 3
-15.052681 -19.339540 6.862069 13 115 31 3
-65.061958 69.038498 1.905945 13 115 31 3
-12.197966 103.195686 0.561375 13 115 31 3
-6.857613 -53.794170 3.525662 13 115 31 3
51.743679 29.287661 10.331759 13 115 31 3
83.100014 -19.800879 8.632947 13 115 31 3
-14.786570 -17.214624 0.182965 13 115 31 3
53.821011 31.784222 8.938395 13 115 31 3
-11.012862 102.695503 4.243569 13 115 31 3
-12.172603 102.854462 0.989864 13 115 31 3
-14.265970 -17.543085 9.362989 13 115 31 3
-69.436707 33.990612 -0.636490 13 115 31 3
-67.369339 72.428413 0.153381 13 115 31 3
-16.657747 -16.328386 7.292354 13 115 31 3
94.440422 -14.926881 10.286909 13 115 31 3
-26.340443 -6.034185 1.392536 13 115 31 3
50.026909 -111.683167 9.888600 13 115 31 3
-12.250748 102.296082 4.782809 13 115 31 3
-62.284088 -8.322421 -1.786598 13 115 31 3
-68.278107 30.821884 -2.516205 13 115 31 3
-67.648849 70.191666 1.403069 13 115 31 3
116.490448 -43.754734 2.171201 13 115 31 3
94.694237 -15.276128 6.849129 13 115 31 3
-11.270117 102.117615 3.547332 13 115 31 3
-11.353268 102.725304 4.098797 13 115 31 3
-15.284952 -17.445494 0.907598 13 115 31 3
9.688434 56.511341 7.368498 13 115 31 3
48.484440 -108.401176 9.911731 13 115 31 3
83.874619 -21.849493 8.588726 13 115 31 3
-109.702843 -43.754688 7.046362 13 115 31 3
65.895653 51.581249 5.314905 13 115 31 3
-11.972455 102.775703 0.004053 13 115 31 3
-68.245491 32.186657 -4.959366 13 115 31 3
39.370712 83.131767 2.784329 13 115 31 3
117.257622 -42.227360 1.605675 13 115 31 3
46.783703 -57.959511 4.527492 13 115 31 3
-54.022305 -47.210838 4.568843 13 115 31 3
-68.243629 71.376999 0.782863 13 115 31 3
-10.802850 101.949989 4.024409 13 115 31 3
113.011154 -41.696415 2.119510 13 115 31 3
50.816780 29.658258 9.789738 13 115 31 3
97.578392 -63.943237 4.989262 13 115 31 3
117.636436 -42.431507 4.016199 13 115 31 3
41.611855 -92.728294 6.652469 13 115 31 3
47.210915 -58.958599 8.157549 13 115 31 3
-21.154818 -58.267330 -1.438278 13 115 31 3
-66.008026 71.418434 -1.101845 13 115 31 3
-38.914997 -52.126564 5.164639 13 115 31 3
99.851830 -63.363590 5.042070 13 115 31 3
-6.727890 -104.663918 5.426131 13 115 31 3
-11.654809 103.004089 0.407379 13 115 31 3
-11.660396 103.064232 2.287059 13 115 31 3
-38.048882 -49.954941 3.176550 13 115 31 3
-15.214717 -17.497068 1.703829 13 115 31 3
56.129185 -91.884552 8.153073 13 115 31 3
-81.643738 -82.162605 7.450856 13 115 31 3
116.379471 -43.130383 2.159715 13 115 31 3
-54.107735 -47.432808 2.683194 13 115 31 3
-15.588451 -15.440185 7.793349 13 115 31 3
-13.334229 103.059380 4.349094 13 115 31 3
51.858257 31.859028 9.697821 13 115 31 3
-80.644501 -80.118980 6.419765 13 115 31 3
-13.630594 -17.295782 8.369459 13 115 31 3
47.220036 -57.563801 4.121887 13 115 31 3
-15.304608 -16.974207 2.069903 13 115 31 3
-11.690667 103.260803 5.170236 13 115 31 3
-54.175621 -47.227665 2.313882 13 115 31 3
-15.858245 11.629801 1.890724 13 115 31 3
117.385811 -43.214695 3.057274 13 115 31 3
84.079971 -18.822989 6.521915 13 115 31 3
-15.553083 12.042612 0.399823 13 115 31 3
47.003536 -58.147606 4.725686 13 115 31 3
46.882309 -58.258640 11.643353 13 115 31 3
49.254333 -109.655228 5.020504 13 115 31 3
-68.307465 30.464560 -1.549072 13 115 31 3
106.078995 14.319199 3.872437 13 115 31 3
-66.416214 70.227417 -4.464214 13 115 31 3
-11.692426 102.861855 -0.309059 13 115 31 3
64.427132 44.372952 9.889915 13 115 31 3
47.162968 -58.676880 7.032198 13 115 31 3
87.049332 -19.222055 8.666440 13 115 31 3
2.504879 -13.457754 7.435608 13 115 31 3
-66.524696 70.688057 -3.349148 13 115 31 3
10.379149 55.223454 1.486137 13 115 31 3
63.599216 41.330063 10.092025 13 115 31 3
-13.182129 103.147293 3.693144 13 115 31 3
-89.217125 99.983429 0.641811 13 115 31 3
49.505630 -110.336288 5.460113 13 115 31 3
-66.338364 70.759216 -4.613382 13 115 31 3
-15.668913 11.734805 5.236680 13 115 31 3
10.252795 55.551037 -0.359836 13 115 31 3
-12.050656 104.288086 4.867572 13 115 31 3
-54.109234 -47.345459 -0.022933 13 115 31 3
-13.403113 103.251846 3.754580 13 115 31 3
28.317490 93.663361 7.417557 13 115 31 3
26.416941 92.350479 2.066610 13 115 31 3
50.672340 -112.589500 8.066212 13 115 31 3
-10.590395 103.765129 3.524661 13 115 31 3
-68.233604 69.544258 -0.352363 13 115 31 3
42.190804 82.234879 7.292598 13 115 31 3
-10.916015 103.668365 3.056461 13 115 31 3
49.407608 -110.360245 4.807024 13 115 31 3
28.908707 91.297798 6.214490 13 115 31 3
51.461563 -111.908829 9.138263 13 115 31 3
10.752946 57.108410 7.259701 13 115 31 3
115.234756 -44.034134 4.012948 13 115 31 3
49.686985 -108.151161 7.451040 13 115 31 3
-85.064095 -78.122826 5.492483 13 115 31 3
-11.935441 103.070923 5.241998 13 115 31 3
113.275482 -85.022820 6.761699 13 115 31 3
-14.440536 -18.820465 6.936481 13 115 31 3
-79.295311 -83.341118 0.178520 13 115 31 3
10.537996 55.200958 0.876045 13 115 31 3
84.904373 -21.618614 9.324522 13 115 31 3
94.377640 -14.965281 10.155691 13 115 31 3
-66.438583 33.912312 -2.174167 13 115 31 3
-68.010651 34.150917 -2.432932 13 115 31 3
-26.971889 -6.135365 6.736552 13 115 31 3
-66.717392 70.288681 0.734562 13 115 31 3
-67.412674 31.879246 -1.792387 13 115 31 3
50.131821 -111.841782 8.884109 13 115 31 3
-12.920605 102.556503 4.023887 13 115 31 3
-68.104958 32.742535 -4.818264 13 115 31 3
94.228401 -14.887412 2.313609 13 115 31 3
-14.344514 -16.470362 9.072253 13 115 31 3
-78.468910 -81.722366 5.784633 13 115 31 3
52.603523 23.958229 6.470195 13 115 31 3
42.731098 -94.697891 9.557670 13 115 31 3
113.654823 -45.129429 2.324002 13 115 31 3
-15.426462 -17.330708 2.263319 13 115 31 3
-12.031994 102.778618 0.517362 13 115 31 3
25.414856 93.228645 5.344176 13 115 31 3
112.607101 -44.566505 3.293228 13 115 31 3
114.306183 -42.922680 1.199700 13 115 31 3
23.350464 48.634762 9.869528 13 115 31 3
97.160820 -60.129539 5.567185 13 115 31 3
-83.993355 -81.252693 2.023748 13 115 31 3
85.421448 -20.656828 9.187341 13 115 31 3
-14.964854 -17.421623 2.694443 13 115 31 3
-65.234116 70.039543 2.921613 13 115 31 3
-26.791780 -6.735735 8.588167 13 115 31 3
27.187572 91.628059 7.613724 13 115 31 3
-66.177460 70.502846 -3.058622 13 115 31 3
49.983284 -109.712051 5.424108 13 115 31 3
-13.506428 -15.717583 6.786901 13 115 31 3
-10.594310 103.789124 4.046219 13 115 31 3
-64.780724 71.817886 1.352797 13 115 31 3
28.129084 93.397591 4.943558 13 115 31 3
113.502464 -84.293442 -0.252878 13 115 31 3
69.088905 -55.968895 6.744717 13 115 31 3
46.979370 -58.057568 5.837204 13 115 31 3
49.770775 28.851334 9.855402 13 115 31 3
-66.451996 70.262032 -3.721209 13 115 31 3
-15.311368 -15.364571 6.789179 13 115 31 3
95.644356 77.569321 1.951695 13 115 31 3
54.949764 -89.177231 4.036561 13 115 31 3
-108.736549 -44.335175 3.717085 13 115 31 3
95.932617 -60.981586 4.708984 13 115 31 3
115.968742 -44.169952 2.399718 13 115 31 3
-11.551405 101.515739 4.375579 13 115 31 3
-14.025509 -17.543036 6.907991 13 115 31 3
97.996201 -61.771862 1.900761 13 115 31 3
68.648293 -55.085590 9.897829 13 115 31 3
-12.042962 102.819458 2.859038 13 115 31 3
94.185310 -14.771764 3.067272 13 115 31 3
48.510368 -108.136780 9.696271 13 115 31 3
27.008076 90.864853 5.964247 13 115 31 3
-68.136574 70.064659 1.253289 13 115 31 3
-38.375626 -49.906597 5.187763 13 115 31 3
77.964569 -58.424965 8.830082 13 115 31 3
47.691715 -111.306458 7.555694 13 115 31 3
11.411380 54.191727 6.256943 13 115 31 3
-16.660378 -16.690868 7.350043 13 115 31 3
86.292358 -18.578817 8.086127 13 115 31 3
-12.002122 103.326500 1.996836 13 115 31 3
-66.693245 72.495079 -0.058164 13 115 31 3
48.318764 -108.310814 9.242880 13 115 31 3
-21.396545 -58.800961 -1.576790 13 115 31 3
-67.355965 33.832550 -1.835881 13 115 31 3
18.096773 26.543440 10.230530 13 115 31 3
81.257629 -18.326073 8.896707 13 115 31 3
-79.565361 -84.135460 -0.219599 13 115 31 3
-67.520210 70.683220 -1.998260 13 115 31 3
64.686531 41.927048 5.130569 13 115 31 3
76.028221 -57.194794 3.702917 13 115 31 3
-67.000435 71.110321 -0.280346 13 115 31 3
-15.402502 -17.157196 3.049206 13 115 31 3
10.586314 55.649467 1.356625 13 115 31 3
42.702450 -91.042587 9.056119 13 115 31 3
94.071037 -14.351706 4.278135 13 115 31 3
-7.235872 -104.838837 6.549439 13 115 31 3
114.754425 -44.367996 3.409353 13 115 31 3
50.787247 28.971958 10.712566 13 115 31 3
-68.359482 69.979355 -0.314292 13 115 31 3
29.058781 91.905373 6.443622 13 115 31 3
49.250069 -109.888809 5.778720 13 115 31 3
114.682793 -43.295803 0.087156 13 115 31 3
-15.100842 -17.524605 0.597886 13 115 31 3
114.591095 -42.823391 0.398451 13 115 31 3
85.089539 -20.180540 10.103913 13 115 31 3
116.703201 -42.763424 1.894715 13 115 31 3
65.723846 49.941856 1.504576 13 115 31 3
-109.248383 -44.253525 4.374885 13 115 31 3
-79.155373 -85.389091 6.676205 13 115 31 3
-121.240715 -10.163615 8.055365 13 115 31 3
-14.946598 -17.461004 0.952751 13 115 31 3
66.602203 43.108002 9.655413 13 115 31 3
49.224514 -109.568718 4.081696 13 115 31 3
46.938843 -108.470329 8.381461 13 115 31 3
113.779114 -45.394531 3.104477 13 115 31 3
-15.003744 -19.004581 5.738693 13 115 31 3
-68.310616 32.962139 0.252316 13 115 31 3
-53.864521 -47.540974 -1.819799 13 115 31 3
95.177094 -14.921622 5.389720 13 115 31 3
85.744728 -17.183203 8.971193 13 115 31 3
-26.139429 -6.295165 -0.335182 13 115 31 3
-53.769379 -47.363834 -1.846289 13 115 31 3
-13.265813 -17.231951 7.367305 13 115 31 3
-108.805359 -44.181385 2.452600 13 115 31 3
23.005207 50.534008 1.928194 13 115 31 3
-12.244474 102.891945 -0.163932 13 115 31 3
48.679489 -108.434387 8.986472 13 115 31 3
26.622927 90.921860 6.204700 13 115 31 3
7.876400 -15.761767 7.318644 13 115 31 3
-16.137684 -15.786913 6.278427 13 115 31 3
-11.949665 102.529694 4.528393 13 115 31 3
31.300293 86.103737 5.344759 13 115 31 3
-26.016899 56.876019 -4.285739 13 115 31 3
42.969906 -77.803909 12.147267 13 115 31 3
94.966576 -15.499214 4.435994 13 115 31 3
46.146599 -58.084019 8.424057 13 115 31 3
-12.746251 101.724655 4.242914 13 115 31 3
-15.663801 11.995799 6.601095 13 115 31 3
48.080280 -109.377274 8.091102 13 115 31 3
84.314407 -18.811230 4.207861 13 115 31 3
94.520370 -14.336246 7.800964 13 115 31 3
114.363968 -45.364956 3.106163 13 115 31 3
54.262878 31.049248 9.755115 13 115 31 3
-26.648123 -6.090481 -0.529908 13 115 31 3
-15.756739 11.962780 6.673439 13 115 31 3
-77.552277 -82.304352 5.593734 13 115 31 3
49.814640 -109.562027 5.650123 13 115 31 3
-11.679420 102.984673 1.983584 13 115 31 3
65.518997 43.647541 8.650391 13 115 31 3
46.135624 -81.048645 12.199708 13 115 31 3
-11.790406 103.291504 0.598754 13 115 31 3
25.130585 93.906357 5.953290 13 115 31 3
-78.813889 -81.990227 5.523212 13 115 31 3
-16.125685 11.166656 1.313545 13 115 31 3
113.885239 -42.882656 3.608334 13 115 31 3
-66.614563 70.615250 -3.750388 13 115 31 3
50.036011 -109.916161 5.616782 13 115 31 3
-77.083153 82.054001 2.746727 13 115 31 3
42.595284 -79.858292 13.116892 13 115 31 3
54.325005 -87.920105 9.030358 13 115 31 3
47.305241 -57.690876 4.783192 13 115 31 3
-75.774872 82.339027 -2.196573 13 115 31 3
-65.663857 70.760651 0.134710 13 115 31 3
117.041451 -42.575195 0.798420 13 115 31 3
-15.568445 12.034903 0.746652 13 115 31 3
-5.899715 -51.899803 3.912378 13 115 31 3
84.035400 -18.834272 6.663463 13 115 31 3
-14.818960 -17.293980 1.562106 13 115 31 3
3.438526 -14.488232 7.358113 13 115 31 3
-66.114128 71.686531 0.548576 13 115 31 3
84.310257 -18.791622 4.947190 13 115 31 3
-12.000596 103.306213 2.171549 13 115 31 3
28.028835 91.316521 7.384591 13 115 31 3
-71.385361 -13.190134 4.325226 13 115 31 3
-39.920513 -53.841930 4.054595 13 115 31 3
-71.146126 86.751862 -1.005153 13 115 31 3
113.567291 -84.563499 0.976977 13 115 31 3
51.749302 -111.626350 7.658038 13 115 31 3
-67.734085 72.066399 1.041360 13 115 31 3
-26.534529 -6.559769 1.645678 13 115 31 3
-26.134697 57.229237 -4.184333 13 115 31 3
-68.189651 71.571686 0.028797 13 115 31 3
52.303139 30.714565 4.595062 13 115 31 3
-28.056101 -4.578943 6.060327 13 115 31 3
-74.958801 82.871574 1.557712 13 115 31 3
26.444338 92.593872 2.087565 13 115 31 3
-68.486526 32.811279 -5.060995 13 115 31 3
-12.462858 102.891029 3.745845 13 115 31 3
-65.373947 69.591187 0.581365 13 115 31 3
64.647095 41.915924 3.720361 13 115 31 3
-64.684174 71.068398 -0.796675 13 115 31 3
-11.377462 103.554626 3.689394 13 115 31 3
-6.609546 -53.487637 7.658223 13 115 31 3
-11.777625 103.273888 2.280874 13 115 31 3
25.752747 92.293343 4.959723 13 115 31 3
64.943436 42.087887 4.879185 13 115 31 3
-81.828300 -80.584610 7.985392 13 115 31 3
-10.574267 103.131882 4.582473 13 115 31 3
-110.728516 -44.619701 9.145133 13 115 31 3
-68.133423 31.033855 -1.126042 13 115 31 3
47.073860 -58.117672 5.143154 13 115 31 3
-6.513574 -53.119114 7.499426 13 115 31 3
47.335564 -57.677860 4.772685 13 115 31 3
-66.604790 70.345070 -5.013132 13 115 31 3
-68.690468 32.367023 -5.129227 13 115 31 3
64.739998 48.885609 6.637975 13 115 31 3
39.963757 80.269943 6.417593 13 115 31 3
115.364487 -43.692936 3.599132 13 115 31 3
-13.040811 104.130806 3.635751 13 115 31 3
-15.920901 -15.727629 7.538348 13 115 31 3
108.281837 10.138818 3.373477 13 115 31 3
-26.519346 -6.040246 1.428777 13 115 31 3
-11.723207 102.983177 3.084189 13 115 31 3
8.759985 54.696850 5.640159 13 115 31 3
38.890884 79.793541 5.630229 13 115 31 3
-12.854022 103.934235 3.225525 13 115 31 3
-11.322655 101.604637 3.562531 13 115 31 3
51.588673 30.046263 5.432980 13 115 31 3
-11.657429 103.202988 -0.211800 13 115 31 3
-14.847837 -17.118532 1.662398 13 115 31 3
110.781898 -59.303986 3.873969 13 115 31 3
-79.663025 -84.628777 3.265193 13 115 31 3
98.609467 -64.537781 5.330049 13 115 31 3
97.981850 -62.000614 1.792436 13 115 31 3
-66.455360 70.287727 -3.250912 13 115 31 3
-25.599106 57.289665 -3.912984 13 115 31 3
98.256058 -61.511356 1.014880 13 115 31 3
-15.791932 -18.123995 5.932979 13 115 31 3
-53.805706 -47.182144 -2.377747 13 115 31 3
-15.797669 -18.078856 6.672769 13 115 31 3
-19.615368 -60.423855 0.828067 13 115 31 3
113.890236 -42.971504 2.811179 13 115 31 3
-62.846134 -7.073082 2.574653 13 115 31 3
49.189896 -110.158707 4.330117 13 115 31 3
-16.720776 -15.789680 6.198036 13 115 31 3
-68.699043 33.084778 0.107030 13 115 31 3
50.934555 -97.197510 9.889479 13 115 31 3
39.635544 82.750557 4.033113 13 115 31 3
-11.919753 103.308014 2.126938 13 115 31 3
9.253683 56.072304 6.828464 13 115 31 3
-77.349854 81.816422 1.531581 13 115 31 3
-70.530052 31.510836 -1.672502 13 115 31 3
-25.511003 57.053772 -4.608541 13 115 31 3
-76.191154 82.241035 -0.908304 13 115 31 3
52.161495 30.123585 6.021376 13 115 31 3
-12.721833 102.667709 5.015239 13 115 31 3
-15.010103 -16.976091 2.016499 13 115 31 3
-66.160423 70.387863 -4.269750 13 115 31 3
113.375710 -84.145569 3.519255 13 115 31 3
114.270569 -42.879601 0.692483 13 115 31 3
-6.492143 -105.234734 5.047351 13 115 31 3
46.191208 -57.519249 8.029141 13 115 31 3
37.656364 80.115959 7.373345 13 115 31 3
-16.551941 -18.939310 6.742288 13 115 31 3
-37.244923 -52.685379 1.295186 13 115 31 3
27.119955 92.368202 2.363912 13 115 31 3
40.019135 83.541565 7.892043 13 115 31 3
99.061935 -59.406956 5.568439 13 115 31 3
-70.287621 33.750195 -1.971307 13 115 31 3
9.920338 54.162228 7.763921 13 115 31 3
48.702747 -109.035477 8.424471 13 115 31 3
10.619270 55.158245 0.048624 13 115 31 3
-11.628426 102.893250 4.086212 13 115 31 3
-11.702025 103.235268 0.379592 13 115 31 3
-76.094154 81.047592 1.377722 13 115 31 3
-79.406021 -84.135109 0.669436 13 115 31 3
-77.842346 -83.004387 6.305335 13 115 31 3
-39.566208 -52.332031 -2.788784 13 115 31 3
-54.130657 -47.214912 4.684718 13 115 31 3
-12.360941 101.799850 4.703924 13 115 31 3
-85.846176 -80.699448 7.483468 13 115 31 3
26.330818 93.802353 4.991477 13 115 31 3
-25.675201 57.155067 1.980733 13 115 31 3
-11.648159 103.058174 3.918020 13 115 31 3
47.764851 -58.057392 8.543061 13 115 31 3
25.113426 49.709652 6.298074 13 115 31 3
10.422021 55.173176 0.549222 13 115 31 3
-11.892862 103.807274 2.779936 13 115 31 3
53.233082 -90.227425 8.256761 13 115 31 3
113.165260 -44.704124 3.059117 13 115 31 3
-80.566978 -80.135254 5.913150 13 115 31 3
-89.287354 99.878792 9.237666 13 115 31 3
43.210751 -81.958183 13.610359 13 115 31 3
55.612652 -89.105934 4.965800 13 115 31 3
83.957405 -16.945776 8.470701 13 115 31 3
-11.922509 103.347336 -0.039351 13 115 31 3
-12.516247 102.957260 5.192401 13 115 31 3
-22.278065 45.198898 0.841117 13 115 31 3
105.889328 10.603330 4.183595 13 115 31 3
-10.372413 103.317818 4.103030 13 115 31 3
-119.177139 -9.692045 5.051810 13 115 31 3
48.245804 -108.042862 8.465405 13 115 31 3
115.790115 -42.665844 3.368594 13 115 31 3
53.591797 -87.189476 8.019881 13 115 31 3
-14.966878 -16.931452 0.627436 13 115 31 3
25.507999 92.926109 7.661921 13 115 31 3
-5.691957 -53.289558 -1.080793 13 115 31 3
51.196949 -110.514076 8.374468 13 115 31 3
47.437332 -98.455872 9.700555 13 115 31 3
28.323078 91.870689 7.655108 13 115 31 3
55.457787 -90.626320 7.434979 13 115 31 3
49.195980 -97.724602 7.578856 13 115 31 3
-13.493732 -18.718445 6.831476 13 115 31 3
-67.334618 70.873795 0.801421 13 115 31 3
9.518263 57.300568 5.869429 13 115 31 3
113.570694 -84.698692 9.321342 13 115 31 3
41.480595 -93.391968 4.835059 13 115 31 3
-39.074017 -53.232082 4.356472 13 115 31 3
-11.503139 103.094116 3.161800 13 115 31 3
-108.887924 -44.226540 5.146047 13 115 31 3
49.136398 -109.728157 4.007842 13 115 31 3
51.721943 -95.361755 9.668387 13 115 31 3
99.394516 -63.563652 6.604813 13 115 31 3
114.361832 -44.343266 3.376759 13 115 31 3
38.781742 82.816788 0.410256 13 115 31 3
49.749527 -97.594719 5.420843 13 115 31 3
94.297043 -14.953939 2.273436 13 115 31 3
112.914696 -41.338879 2.465768 13 115 31 3
84.370102 -19.347336 4.885450 13 115 31 3
-66.863449 70.898376 0.116541 13 115 31 3
49.417545 -107.457390 8.052014 13 115 31 3
-11.399767 102.504295 4.938606 13 115 31 3
46.862850 -57.998932 5.131947 13 115 31 3
49.995274 -108.675400 7.787500 13 115 31 3
-78.693680 -85.451576 5.157976 13 115 31 3
-10.438007 102.849907 3.631727 13 115 31 3
115.987328 -41.900154 2.652264 13 115 31 3
43.437851 -80.150223 5.521343 13 115 31 3
98.308151 -63.779232 4.466354 13 115 31 3
-89.372231 100.074127 8.022920 13 115 31 3
21.259178 51.585777 5.919927 13 115 31 3
68.857132 -54.608265 7.602427 13 115 31 3
-107.639229 -45.273258 8.947817 13 115 31 3
-12.117037 103.250816 1.369509 13 115 31 3
11.322943 54.280384 7.677536 13 115 31 3
-27.462992 -5.916453 5.497944 13 115 31 3
64.067329 40.614300 7.998899 13 115 31 3
62.737663 41.794434 9.738092 13 115 31 3
48.227741 -108.607216 9.004830 13 115 31 3
-15.352495 -17.374950 3.360158 13 115 31 3
50.004211 -109.682526 4.878263 13 115 31 3
-79.627518 -83.991783 0.174612 13 115 31 3
-10.466855 102.946930 3.832226 13 115 31 3
26.760359 90.485870 6.854891 13 115 31 3
48.777950 -94.956657 9.138268 13 115 31 3
25.419519 90.974396 4.665767 13 115 31 3
49.169964 24.894007 9.834497 13 115 31 3
96.764343 -61.900780 4.531324 13 115 31 3
-76.019218 81.929840 -2.371003 13 115 31 3
57.009007 -87.827057 7.355664 13 115 31 3
-64.228935 90.096329 0.684749 13 115 31 3
95.973396 78.050903 4.238907 13 115 31 3
-13.067311 102.029877 4.254115 13 115 31 3
-7.414116 -104.859863 0.742268 13 115 31 3
52.028595 31.205622 11.717019 13 115 31 3
-10.977444 103.000824 3.268765 13 115 31 3
-15.223949 -16.912603 0.086308 13 115 31 3
38.934330 83.026703 0.597251 13 115 31 3
99.083824 -62.553436 5.310378 13 115 31 3
22.228638 50.129028 10.218526 13 115 31 3
47.316658 -58.003635 5.351550 13 115 31 3
-11.316930 104.042046 4.111173 13 115 31 3
-12.585098 102.289406 3.680000 13 115 31 3
-15.246934 -16.978666 1.588696 13 115 31 3
-54.136509 -47.492439 0.983445 13 115 31 3
114.205643 -43.159756 0.548275 13 115 31 3
-83.058586 -78.757721 5.411262 13 115 31 3
-15.178987 -15.459896 7.738779 13 115 31 3
38.823196 82.558800 1.072870 13 115 31 3
50.251160 -108.417519 9.412191 13 115 31 3
-65.177185 69.570808 0.434661 13 115 31 3
47.773754 -57.833290 14.053772 13 115 31 3
-15.347353 -17.378973 0.767635 13 115 31 3
47.451149 -97.296265 8.699990 13 115 31 3
-11.596018 104.119019 3.714368 13 115 31 3
113.603294 -41.912727 3.712794 13 115 31 3
44.293644 -78.615555 12.330055 13 115 31 3
-110.637451 -44.099724 9.266531 13 115 31 3
42.000908 83.841583 7.327332 13 115 31 3
24.573935 49.884731 8.496850 13 115 31 3
-15.777868 12.056944 6.506660 13 115 31 3
50.220394 -109.552269 7.679409 13 115 31 3
117.243225 -42.916618 0.505273 13 115 31 3
23.770531 52.537659 7.779585 13 115 31 3
41.528183 -93.434700 3.617632 13 115 31 3
94.425636 -14.805992 11.239940 13 115 31 3
-13.737471 -15.981171 7.103183 13 115 31 3
-79.513214 -84.556328 4.578679 13 115 31 3
53.489876 28.315838 8.990846 13 115 31 3
50.811260 -110.872337 8.533721 13 115 31 3
-4.599857 -54.397896 5.792486 13 115 31 3
-15.942902 11.982956 -0.252381 13 115 31 3
39.159958 85.345482 7.125430 13 115 31 3
-69.376984 32.849953 -1.064051 13 115 31 3
-83.639259 -81.271317 0.715469 13 115 31 3
26.758236 94.094986 5.401667 13 115 31 3
-15.349967 -17.960230 6.956744 13 115 31 3
-84.173912 -81.113060 0.801296 13 115 31 3
50.116512 -110.000343 4.460807 13 115 31 3
49.354542 100.759819 5.672230 13 115 31 3
29.046446 93.206650 4.877326 13 115 31 3
67.666008 -56.308262 7.646119 13 115 31 3
82.862946 -17.065237 9.409470 13 115 31 3
-54.169594 -47.350529 -0.099699 13 115 31 3
-68.807816 31.517302 -0.643089 13 115 31 3
-11.662410 103.029816 1.539868 13 115 31 3
-13.326941 -15.920873 7.094566 13 115 31 3
53.406990 30.480124 8.497231 13 115 31 3
25.439951 50.119038 7.601068 13 115 31 3
117.027641 -42.900501 0.768502 13 115 31 3
113.605942 -84.432945 0.010539 13 115 31 3
-11.793253 103.297295 0.431702 13 115 31 3
-15.567773 12.099041 2.947309 13 115 31 3
10.413886 55.667778 1.597371 13 115 31 3
-26.197287 -4.625013 7.653172 13 115 31 3
117.504654 -42.742989 1.707441 13 115 31 3
-107.651245 -45.541267 8.559664 13 115 31 3
-68.568283 32.187885 -4.789390 13 115 31 3
-16.941896 -16.619860 7.541640 13 115 31 3
38.996971 83.106468 1.104343 13 115 31 3
-27.183073 -8.246021 4.248575 13 115 31 3
-109.598099 -46.093243 8.794620 13 115 31 3
117.107338 -43.158958 4.951952 13 115 31 3
49.218678 -110.254044 3.996453 13 115 31 3
26.414993 92.634193 1.776271 13 115 31 3
12.182139 55.835300 6.272798 13 115 31 3
-5.437348 -53.570316 1.167815 13 115 31 3
-67.608948 69.407295 -0.048645 13 115 31 3
26.540747 92.199448 2.527819 13 115 31 3
-69.810425 31.723148 -1.421438 13 115 31 3
-78.859138 -83.589394 0.327781 13 115 31 3
-78.948105 -83.513885 0.755780 13 115 31 3
-15.214858 -16.298359 4.644454 13 115 31 3
81.995865 -21.235949 8.871945 13 115 31 3
114.655739 -42.845345 -0.218433 13 115 31 3
81.642418 -19.992392 8.225485 13 115 31 3
-16.346947 -16.993736 5.532416 13 115 31 3
-12.483006 103.015755 3.574710 13 115 31 3
-11.845366 102.758400 0.048979 13 115 31 3
-69.948616 30.818670 -1.778988 13 115 31 3
98.099686 -61.549381 1.507853 13 115 31 3
97.591125 -60.218475 5.792408 13 115 31 3
-12.429897 103.885384 4.370568 13 115 31 3
-62.699890 -8.358432 -0.455233 13 115 31 3
96.135864 77.753578 2.393084 13 115 31 3
6.980270 -16.583998 7.408026 13 115 31 3
86.285919 -20.765650 8.362750 13 115 31 3
49.876228 -109.464561 4.222562 13 115 31 3
-12.113077 102.808350 0.329673 13 115 31 3
-12.419679 102.474472 4.794767 13 115 31 3
-65.116280 69.623032 1.786420 13 115 31 3
49.810925 -109.526634 5.572251 13 115 31 3
-13.469467 103.302460 4.356009 13 115 31 3
98.004211 -63.231373 4.571937 13 115 31 3
116.946388 -42.921146 1.447836 13 115 31 3
47.330673 -58.006882 4.913067 13 115 31 3
-65.505356 72.052963 1.078376 13 115 31 3
31.654442 21.975147 6.421748 13 115 31 3
38.882454 82.917450 1.751211 13 115 31 3
99.749290 -63.369579 4.503696 13 115 31 3
-89.534195 98.847519 4.479426 13 115 31 3
-117.830849 -8.442217 6.860968 13 115 31 3
-64.853737 70.725174 1.361980 13 115 31 3
31.263334 21.151482 12.809508 13 115 31 3
96.160187 -60.649212 5.669126 13 115 31 3
45.917789 -81.905685 10.769023 13 115 31 3
52.126732 29.522940 7.528596 13 115 31 3
49.827946 -110.344940 4.302335 13 115 31 3
117.444878 -42.646637 1.536916 13 115 31 3
-12.623221 103.359001 4.090087 13 115 31 3
-84.032181 -81.262115 1.572253 13 115 31 3
-13.967261 -15.867118 6.869662 13 115 31 3
96.240211 78.106552 3.019299 13 115 31 3
74.813614 -58.469975 8.972010 13 115 31 3
-79.194603 -84.675354 6.185616 13 115 31 3
-11.636788 102.998306 0.932359 13 115 31 3
96.131088 78.119736 -1.693016 13 115 31 3
-5.264097 -53.105324 0.013424 13 115 31 3
114.761009 -43.001671 0.241389 13 115 31 3
28.290457 92.991928 7.926293 13 115 31 3
116.180061 -44.002281 3.538244 13 115 31 3
114.751343 -43.417248 2.806751 13 115 31 3
38.896458 82.971916 2.147178 13 115 31 3
-12.282925 103.233940 4.762571 13 115 31 3
-26.068838 56.936501 -3.868370 13 115 31 3
-16.567410 -15.637244 5.745688 13 115 31 3
94.954712 -14.839196 5.875502 13 115 31 3
-110.494835 -44.862411 8.630089 13 115 31 3
-12.200763 103.026360 1.532902 13 115 31 3
47.179726 -58.122364 5.557511 13 115 31 3
-110.031105 -44.879272 10.473613 13 115 31 3
83.839859 -19.111845 3.618654 13 115 31 3
51.301094 -109.149078 9.023723 13 115 31 3
96.753906 78.097122 -0.445710 13 115 31 3
-4.307148 -54.235565 4.076904 13 115 31 3
54.399132 -88.620140 8.707994 13 115 31 3
-67.064529 69.902985 1.643060 13 115 31 3
63.270267 -85.363762 13.690796 13 115 31 3
-22.282455 -57.346539 -0.181962 13 115 31 3
-13.565535 102.947113 4.039525 13 115 31 3
114.635590 -42.846695 0.834227 13 115 31 3
-66.372566 69.329468 0.623685 13 115 31 3
-11.527901 103.098373 5.016704 13 115 31 3
-11.794992 104.256020 3.421945 13 115 31 3
49.148067 -110.896561 9.656270 13 115 31 3
26.612068 92.096870 1.271897 13 115 31 3
94.540390 -14.840169 7.354850 13 115 31 3
-65.983612 70.409035 3.562535 13 115 31 3
-12.791077 103.300034 3.891602 13 115 31 3
-68.024109 32.565025 -5.157507 13 115 31 3
113.179688 -84.463486 0.869987 13 115 31 3
-68.647919 32.716568 -5.559122 13 115 31 3
23.207933 50.567978 3.112094 13 115 31 3
98.005318 -60.777050 6.782764 13 115 31 3
106.907188 12.103250 1.345766 13 115 31 3
-66.593857 70.470314 -2.952613 13 115 31 3
52.557568 -110.309395 8.165807 13 115 31 3
-66.349480 70.273277 -3.780202 13 115 31 3
-13.955023 -18.988918 7.043949 13 115 31 3
-83.669960 -81.322678 0.054698 13 115 31 3
-66.191414 70.363220 -3.485386 13 115 31 3
49.101986 -109.732422 4.217375 13 115 31 3
53.898293 -86.984871 8.530100 13 115 31 3
98.642853 -61.688549 1.908739 13 115 31 3
51.054031 30.457956 12.000361 13 115 31 3
-12.038818 103.673386 3.130226 13 115 31 3
28.366825 91.495888 4.541639 13 115 31 3
11.783098 55.403812 7.865682 13 115 31 3
54.372181 29.518108 9.080421 13 115 31 3
53.710445 27.248528 10.350667 13 115 31 3
11.340830 56.454796 5.260117 13 115 31 3
-14.172820 -16.387325 8.941280 13 115 31 3
-4.932777 -51.494686 5.380427 13 115 31 3
-5.300231 -53.072830 -0.239382 13 115 31 3
26.040348 91.643288 6.300303 13 115 31 3
-15.210481 -16.959972 1.975054 13 115 31 3
49.614395 30.848082 8.822224 13 115 31 3
-66.319092 70.707207 1.165890 13 115 31 3
-69.039062 32.589214 -0.107127 13 115 31 3
-67.144714 33.682739 -0.793442 13 115 31 3
-12.626390 103.653061 5.105780 13 115 31 3
48.613823 -112.204956 9.565942 13 115 31 3
-80.842926 -81.876770 5.527141 13 115 31 3
-11.481053 102.384674 5.159564 13 115 31 3
-64.823143 70.085617 -1.326377 13 115 31 3
10.793700 55.360332 0.318932 13 115 31 3
-11.805693 102.853035 1.673050 13 115 31 3
-15.034328 -15.494755 5.901167 13 115 31 3
-26.142202 57.157509 -3.147208 13 115 31 3
-12.189843 103.214790 1.501928 13 115 31 3
-25.974331 56.792088 0.215066 13 115 31 3
76.259651 -56.899529 3.293612 13 115 31 3
-54.125317 -47.372955 3.092733 13 115 31 3
94.330009 -14.937975 3.038542 13 115 31 3
-66.658287 70.478058 -4.745434 13 115 31 3
52.396152 30.951395 8.580722 13 115 31 3
-11.290200 102.825645 4.148523 13 115 31 3
-81.824814 -78.193100 5.867827 13 115 31 3
-64.885315 70.971260 -1.039158 13 115 31 3
114.929626 -41.117565 2.404852 13 115 31 3
50.510662 -111.077354 7.341548 13 115 31 3
116.895714 -42.880798 1.194585 13 115 31 3
113.898628 -42.479702 3.542341 13 115 31 3
113.192505 -84.401604 0.706914 13 115 31 3
-3.724286 -53.180618 3.382894 13 115 31 3
29.154076 92.621040 5.664296 13 115 31 3
-66.346176 70.260017 -3.808817 13 115 31 3
-12.386048 103.478752 4.660090 13 115 31 3
114.513779 -42.797398 -0.504188 13 115 31 3
37.649246 83.849129 7.573752 13 115 31 3
95.800743 77.450386 0.639764 13 115 31 3
-66.161835 70.403168 -4.430646 13 115 31 3
85.174431 -21.012863 8.791589 13 115 31 3
-68.468819 69.835320 0.017895 13 115 31 3
95.664635 -62.069763 4.834442 13 115 31 3
-84.102104 -80.601974 1.987315 13 115 31 3
115.218109 -42.991173 3.579838 13 115 31 3
-39.166241 -54.050686 3.777500 13 115 31 3
51.491108 28.973724 9.242520 13 115 31 3
-66.568077 70.658073 -3.338316 13 115 31 3
-11.688404 102.221321 3.708010 13 115 31 3
-13.461130 -18.612774 6.251155 13 115 31 3
8.609097 56.505634 5.820837 13 115 31 3
68.696167 -55.708378 4.789165 13 115 31 3
-67.416252 71.918076 -1.431651 13 115 31 3
-40.558899 -52.256096 3.878457 13 115 31 3
-12.955799 -16.865952 6.403069 13 115 31 3
84.454155 -22.150154 8.772976 13 115 31 3
-61.543167 -7.637333 2.710107 13 115 31 3
-119.406059 -9.610127 3.837703 13 115 31 3
76.314903 -56.916153 3.844005 13 115 31 3
-5.239919 -51.373093 4.648545 13 115 31 3
-83.881477 -82.373596 6.448722 13 115 31 3
-25.783531 57.111069 4.137655 13 115 31 3
-66.564728 70.705650 -4.779765 13 115 31 3
-77.096581 81.420670 2.585454 13 115 31 3
-65.804420 69.720421 -0.293865 13 115 31 3
96.884697 -60.821281 4.183333 13 115 31 3
-15.497886 -18.546824 8.514883 13 115 31 3
-66.579689 33.531849 -0.954987 13 115 31 3
-14.912563 -16.981016 0.449251 13 115 31 3
-37.284477 -51.791279 1.871471 13 115 31 3
52.236523 30.175642 5.429367 13 115 31 3
47.724102 -112.045952 9.046578 13 115 31 3
50.723099 -100.061516 8.587933 13 115 31 3
-75.780556 83.785042 2.120343 13 115 31 3
47.103764 -57.539803 4.492878 13 115 31 3
-14.919745 -17.137480 3.402891 13 115 31 3
-12.918326 103.939590 4.434419 13 115 31 3
-38.967812 -52.125271 6.079919 13 115 31 3
23.191273 49.849770 2.744439 13 115 31 3
-15.684390 12.262489 5.490503 13 115 31 3
-11.649711 103.173538 0.041535 13 115 31 3
86.473938 -17.307201 8.242271 13 115 31 3
-13.274055 104.041389 3.660606 13 115 31 3
113.120285 -84.684341 1.628290 13 115 31 3
-66.429298 72.412308 1.615150 13 115 31 3
100.605812 -62.799088 4.787865 13 115 31 3
-108.897110 -44.609207 5.294444 13 115 31 3
-11.739825 102.886612 1.567740 13 115 31 3
41.598530 84.390472 6.306870 13 115 31 3
-66.306870 71.981239 1.246507 13 115 31 3
-6.966034 -54.171604 6.628563 13 115 31 3
-89.166122 99.598602 9.719044 13 115 31 3
114.764259 -42.981625 0.607547 13 115 31 3
39.072578 82.365128 3.377989 13 115 31 3
26.844822 91.468239 6.279829 13 115 31 3
117.235901 -42.671680 3.905352 13 115 31 3
-66.362579 70.227409 -4.633668 13 115 31 3
-66.412842 70.240334 -4.640878 13 115 31 3
-68.668686 32.388695 -5.314918 13 115 31 3
-65.337257 70.114471 -1.200634 13 115 31 3
-13.009896 102.178139 4.608487 13 115 31 3
-6.948809 -105.041367 1.082005 13 115 31 3
26.280523 90.135750 5.795708 13 115 31 3
116.210403 -41.377060 2.962866 13 115 31 3
27.950911 92.354057 4.109722 13 115 31 3
-11.021974 103.125519 4.279119 13 115 31 3
-11.911670 102.939674 3.077279 13 115 31 3
-13.107123 103.633278 3.075470 13 115 31 3
-81.048180 -81.531807 6.970089 13 115 31 3
-25.636284 56.695301 -0.368202 13 115 31 3
5.073618 -15.737064 6.972951 13 115 31 3
113.724205 -84.693893 9.232850 13 115 31 3
-79.353928 -81.899086 4.621021 13 115 31 3
47.588104 -110.960640 8.531148 13 115 31 3
47.193619 -58.643932 12.053741 13 115 31 3
-25.608480 57.133820 -3.501701 13 115 31 3
-11.790956 101.843201 4.566853 13 115 31 3
113.561874 -44.914001 2.581480 13 115 31 3
-12.631691 102.664902 4.489498 13 115 31 3
40.451752 83.569374 7.278637 13 115 31 3
49.295120 -108.468346 7.470485 13 115 31 3
-66.535439 33.135624 -0.724481 13 115 31 3
52.521698 -89.198769 8.351300 13 115 31 3
47.804085 -112.111252 8.074065 13 115 31 3
10.426862 55.153881 1.250373 13 115 31 3
-15.324101 -16.960705 -0.053175 13 115 31 3
84.470604 -19.239298 4.763855 13 115 31 3
49.878941 26.449076 10.419212 13 115 31 3
-16.341824 -18.278555 6.129033 13 115 31 3
-6.473356 -51.947048 5.787975 13 115 31 3
-12.831371 103.557693 4.327290 13 115 31 3
45.183502 -78.352058 8.983540 13 115 31 3
116.442299 -41.733917 2.921638 13 115 31 3
85.665443 -18.338202 8.613298 13 115 31 3
68.408554 -56.148125 8.735225 13 115 31 3
-54.056637 -47.305614 5.130024 13 115 31 3
68.409332 -55.670307 5.544130 13 115 31 3
-108.743248 -44.388519 2.764066 13 115 31 3
100.864143 -62.349430 5.708508 13 115 31 3
81.947464 -21.128441 8.642983 13 115 31 3
46.956394 -109.808846 7.800194 13 115 31 3
-15.220949 -15.268342 7.296987 13 115 31 3
-109.175247 -45.996571 8.514482 13 115 31 3
84.332451 -18.784548 5.260046 13 115 31 3
-25.932650 56.850708 4.327356 13 115 31 3
115.861351 -43.900234 2.956838 13 115 31 3
49.151665 -109.463867 10.270589 13 115 31 3
-26.398361 -6.024135 1.361110 13 115 31 3
-12.910824 102.809418 3.368762 13 115 31 3
94.457977 -14.994282 2.550995 13 115 31 3
98.619034 -61.641018 1.464580 13 115 31 3
-12.464421 101.519905 4.340348 13 115 31 3
46.802608 -57.778339 4.453069 13 115 31 3
-16.387426 -16.140017 6.390820 13 115 31 3
47.306160 -58.054237 3.986564 13 115 31 3
64.925911 41.929710 2.803380 13 115 31 3
-11.905721 102.814346 1.620893 13 115 31 3
27.547285 90.796867 5.245468 13 115 31 3
-16.798288 -16.473879 7.828182 13 115 31 3
94.451569 -14.911982 10.296385 13 115 31 3
-11.393150 102.641045 2.963062 13 115 31 3
37.005272 80.641357 6.572830 13 115 31 3
-26.765625 -7.856206 8.115532 13 115 31 3
86.658974 -17.887632 8.408086 13 115 31 3
36.235306 83.503098 6.133877 13 115 31 3
-66.136589 70.479866 -4.365042 13 115 31 3
49.830303 -111.856789 10.099450 13 115 31 3
49.926472 -97.165504 3.920870 13 115 31 3
38.829147 82.932373 0.782221 13 115 31 3
51.082932 -107.979622 7.707338 13 115 31 3
-14.841821 -17.165554 1.454708 13 115 31 3
117.388153 -42.755196 3.171007 13 115 31 3
50.093437 -107.790298 9.042708 13 115 31 3
11.653688 54.467724 5.141448 13 115 31 3
-11.683946 104.345238 4.518470 13 115 31 3
6.685400 -16.429497 7.808213 13 115 31 3
54.494621 -87.315323 9.322137 13 115 31 3
-68.406921 32.858189 -5.432684 13 115 31 3
-84.183716 -80.996101 1.962859 13 115 31 3
-15.288063 -17.473894 3.503938 13 115 31 3
-66.540779 69.228554 2.833938 13 115 31 3
55.616173 -88.987213 3.722450 13 115 31 3
47.632908 -107.587456 7.847796 13 115 31 3
-13.034541 103.715607 4.295484 13 115 31 3
50.568172 -107.697464 7.593207 13 115 31 3
-67.710976 33.967972 -2.353524 13 115 31 3
100.000626 -61.721931 6.062513 13 115 31 3
-12.108463 103.670128 4.049793 13 115 31 3
50.026085 -98.113388 7.794520 13 115 31 3
-15.072973 -17.515400 1.052087 13 115 31 3
-26.003553 56.722351 2.991807 13 115 31 3
83.912727 -19.237377 4.425351 13 115 31 3
-65.767967 70.225319 -1.323040 13 115 31 3
26.602922 92.118492 1.908688 13 115 31 3
52.202625 32.616592 9.337646 13 115 31 3
-6.710555 -104.809212 4.854551 13 115 31 3
64.900589 50.716431 6.398775 13 115 31 3
50.055134 -109.774078 4.945253 13 115 31 3
-108.744850 -42.817196 8.467598 13 115 31 3
27.325483 90.320114 5.443268 13 115 31 3
-74.661957 82.955383 1.844198 13 115 31 3
51.686775 -109.002609 8.638069 13 115 31 3
-15.148542 -18.866215 6.304805 13 115 31 3
114.743828 -43.113026 1.344047 13 115 31 3
114.379753 -42.754299 -0.509580 13 115 31 3
-27.227266 -6.169962 8.168426 13 115 31 3
94.379684 -14.355580 8.145689 13 115 31 3
-4.558808 -54.174419 7.568005 13 115 31 3
10.685312 55.292645 0.940292 13 115 31 3
-40.512909 -50.769680 3.919594 13 115 31 3
-15.386586 -18.520144 5.906511 13 115 31 3
47.279987 -57.490139 12.911963 13 115 31 3
-83.314034 -79.704758 7.479828 13 115 31 3
-67.132317 69.381310 -0.092401 13 115 31 3
-66.681717 34.136696 -2.072232 13 115 31 3
-64.822792 70.548218 0.023933 13 115 31 3
36.422310 84.046608 5.619290 13 115 31 3
-65.772881 71.476959 -2.145611 13 115 31 3
26.510235 92.658493 1.797612 13 115 31 3
45.938057 -57.750237 9.178599 13 115 31 3
49.598255 -110.366707 5.304671 13 115 31 3
46.883026 -57.587566 4.139794 13 115 31 3
-17.009752 -17.841959 6.138634 13 115 31 3
65.630440 48.860607 6.146428 13 115 31 3
-10.411863 103.200798 3.532683 13 115 31 3
-108.176353 -43.662914 7.721706 13 115 31 3
-24.921032 -7.411813 6.344152 13 115 31 3
-67.847122 71.794930 -0.963354 13 115 31 3
29.168869 92.798538 5.401485 13 115 31 3
-11.678205 103.127876 -0.119491 13 115 31 3
-77.780510 -83.299461 5.542546 13 115 31 3
-81.148232 -83.448395 6.169651 13 115 31 3
-68.702560 32.451889 -4.046460 13 115 31 3
-68.022293 32.408337 -4.774757 13 115 31 3
-15.391013 -17.277189 3.412448 13 115 31 3
-12.484035 102.435951 2.741090 13 115 31 3
55.350525 -88.855576 4.355207 13 115 31 3
-11.767969 102.827713 1.665049 13 115 31 3
84.323776 -19.388475 5.389544 13 115 31 3
50.103405 -109.784111 4.240497 13 115 31 3
-66.578316 70.643997 -4.270434 13 115 31 3
96.497749 -62.839615 6.623998 13 115 31 3
-12.212898 102.988609 1.038839 13 115 31 3
50.602299 99.331581 5.177342 13 115 31 3
26.518179 92.187973 1.528447 13 115 31 3
47.598530 -109.089622 9.160551 13 115 31 3
114.612396 -42.823784 0.009673 13 115 31 3
113.837791 -43.538277 3.144693 13 115 31 3
47.662579 -111.032082 9.732903 13 115 31 3
-25.584446 57.231201 0.876552 13 115 31 3
-11.112210 103.934433 3.155737 13 115 31 3
-11.866575 102.008453 4.923403 13 115 31 3
-11.507396 102.530190 4.505694 13 115 31 3
85.884995 -17.950142 9.006750 13 115 31 3
97.920036 -59.920662 5.455007 13 115 31 3
49.554790 -109.409927 4.385855 13 115 31 3
114.114334 -44.062012 2.996218 13 115 31 3
114.083725 -45.390102 3.223805 13 115 31 3
42.594601 -81.839432 11.982685 13 115 31 3
66.446220 41.923927 9.973697 13 115 31 3
-15.426299 -17.149721 1.799724 13 115 31 3
-12.222842 103.048485 1.220948 13 115 31 3
52.833179 -97.409256 9.712798 13 115 31 3
-53.721375 -47.268948 -0.525721 13 115 31 3
98.071678 -62.120770 2.295082 13 115 31 3
-12.101260 102.775017 3.463085 13 115 31 3
-66.125328 71.381638 0.381464 13 115 31 3
5.532621 -14.426318 5.091399 13 115 31 3
-12.272103 104.175156 3.694363 13 115 31 3
-12.037606 104.116936 4.027601 13 115 31 3
-11.612614 103.324745 4.832642 13 115 31 3
-15.137750 -16.893860 6.201579 13 115 31 3
49.293327 -109.705902 5.796238 13 115 31 3
-14.580333 -15.454823 6.874490 13 115 31 3
-13.870661 -17.163971 5.183729 13 115 31 3
-11.290744 103.393898 4.312533 13 115 31 3
-39.420380 -52.326752 -1.762377 13 115 31 3
-16.807144 -18.323338 6.445820 13 115 31 3
-12.648165 102.531174 2.874738 13 115 31 3
27.221317 92.318977 0.797817 13 115 31 3
49.425011 -110.323334 4.214354 13 115 31 3
-66.169098 70.378693 -5.026784 13 115 31 3
-85.189323 -81.754997 6.265732 13 115 31 3
116.924751 -42.808311 0.127073 13 115 31 3
-12.131037 103.271629 1.538576 13 115 31 3
-68.688553 32.416077 -4.268170 13 115 31 3
51.438187 -108.191597 8.946437 13 115 31 3
114.475838 -42.821278 0.641851 13 115 31 3
23.381546 49.808743 1.595727 13 115 31 3
-27.955563 -4.814137 5.379035 13 115 31 3
12.176751 54.984169 4.397049 13 115 31 3
-83.382790 -80.952576 1.240735 13 115 31 3
84.257256 -19.376154 5.278028 13 115 31 3
114.656334 -43.589554 4.569105 13 115 31 3
55.161671 -88.951271 4.805023 13 115 31 3
46.859085 -57.953594 5.576379 13 115 31 3
-11.798312 104.299225 3.221644 13 115 31 3
-11.288163 102.521034 2.896732 13 115 31 3
-15.776066 12.185895 1.114109 13 115 31 3
-67.581734 71.275352 1.584813 13 115 31 3
82.799599 -16.344072 8.353683 13 115 31 3
114.761925 -42.944828 -0.148181 13 115 31 3
-11.305448 101.909653 3.944851 13 115 31 3
-75.824982 81.939651 -2.802322 13 115 31 3
