ply
format ascii 1.0
element vertex 1094
property float x
property float y
property float z
property uchar red
property uchar green
property uchar blue
property int label
end_header
-72.389977 -42.926514 -0.384059 38 102 217 6
-101.946892 61.735058 -0.414774 38 102 217 6
-54.912628 18.597708 -6.137049 38 102 217 6
-56.256832 20.285030 -5.169646 38 102 217 6
-54.712723 30.256655 -6.060050 38 102 217 6
-99.575951 16.892929 -0.425525 38 102 217 6
-48.730301 19.787416 -5.657242 38 102 217 6
-71.111351 -42.699459 -0.826814 38 102 217 6
59.928741 2.571484 1.026971 38 102 217 6
-49.564865 20.317430 -5.609430 38 102 217 6
-48.837399 105.542534 -6.007957 38 102 217 6
-85.436272 -49.482361 -0.413591 38 102 217 6
-49.035557 21.539810 -6.066054 38 102 217 6
57.597416 2.868995 1.249779 38 102 217 6
-49.767063 108.592094 -5.444898 38 102 217 6
47.358639 4.856911 0.782137 38 102 217 6
57.212021 3.761088 0.383150 38 102 217 6
-49.034405 22.576706 -6.194770 38 102 217 6
57.710159 2.288125 0.165207 38 102 217 6
-48.827415 20.454250 -5.676363 38 102 217 6
-97.160614 95.219810 0.241309 38 102 217 6
-100.574356 -65.611412 0.372251 38 102 217 6
-57.717148 67.900909 -6.078725 38 102 217 6
-99.600121 20.175436 -0.431955 38 102 217 6
-56.934273 70.528282 -5.581392 38 102 217 6
-101.557724 -61.392220 0.173372 38 102 217 6
-96.005089 -33.677319 -0.178749 38 102 217 6
-99.999191 18.968317 0.069936 38 102 217 6
-101.221123 43.869598 0.206632 38 102 217 6
-78.604370 -40.516052 -0.638227 38 102 217 6
48.355892 4.088729 0.905530 38 102 217 6
-57.312420 103.156952 -5.815607 38 102 217 6
-48.990555 105.542068 -6.123171 38 102 217 6
44.269875 5.217431 0.847787 38 102 217 6
-52.093761 83.680222 -6.212259 38 102 217 6
-55.406994 19.142290 -5.409026 38 102 217 6
-100.591530 -64.779419 0.537318 38 102 217 6
-48.032841 11.143698 -5.435027 38 102 217 6
-50.516430 105.903282 -5.368898 38 102 217 6
-57.004196 101.227943 -5.258872 38 102 217 6
-56.314854 -5.665020 -6.108065 38 102 217 6
-101.039940 57.754257 0.230069 38 102 217 6
-101.156822 42.675415 0.209996 38 102 217 6
-48.743759 19.744099 -5.624092 38 102 217 6
-48.982983 18.711708 -5.738555 38 102 217 6
4.775591 3.948955 1.349141 38 102 217 6
-77.842140 4.535107 1.474787 38 102 217 6
-101.477188 -62.085892 0.050548 38 102 217 6
-98.497849 9.269993 0.079788 38 102 217 6
-100.285881 45.217564 -0.475289 38 102 217 6
-99.803551 83.765381 -0.291361 38 102 217 6
-58.439896 68.051193 -6.381279 38 102 217 6
-99.613159 43.928219 3.043854 38 102 217 6
-49.250576 8.616282 -5.597029 38 102 217 6
-54.559345 32.745155 -5.318174 38 102 217 6
-57.438095 72.331505 -5.503139 38 102 217 6
-102.388336 -65.674187 -0.258528 38 102 217 6
-98.360260 7.816659 0.537120 38 102 217 6
-53.056686 30.021214 -4.719575 38 102 217 6
-56.619278 17.478878 -5.967697 38 102 217 6
-98.910934 -39.754784 1.493182 38 102 217 6
-58.239731 -6.312104 -5.734494 38 102 217 6
-102.804932 -63.726387 -0.467672 38 102 217 6
-36.980789 4.423866 1.031085 38 102 217 6
-37.096649 4.266212 1.045637 38 102 217 6
-97.640175 -42.846153 -0.443695 38 102 217 6
-99.043121 85.969856 0.018630 38 102 217 6
-98.256821 -92.245056 0.424563 38 102 217 6
-97.682236 92.277130 -0.270998 38 102 217 6
-40.218903 3.372673 0.340230 38 102 217 6
-86.524696 -48.000282 -0.672969 38 102 217 6
-100.005836 58.001942 -0.359402 38 102 217 6
-99.173859 93.458984 0.522007 38 102 217 6
-96.063889 -32.869514 0.596374 38 102 217 6
-101.541954 42.529812 -0.015156 38 102 217 6
-100.109886 -85.441994 1.039170 38 102 217 6
-57.505177 -17.903635 -6.085697 38 102 217 6
-98.438728 5.183983 0.340740 38 102 217 6
-54.981567 22.079676 -6.248734 38 102 217 6
-100.277946 60.760139 0.283602 38 102 217 6
-58.606579 71.320984 -5.600139 38 102 217 6
-58.524666 68.813896 -5.679485 38 102 217 6
-56.990028 -5.760786 -5.501091 38 102 217 6
-57.273331 -18.306362 -5.645024 38 102 217 6
57.598549 3.668315 0.831400 38 102 217 6
-72.357330 -42.861774 -0.572529 38 102 217 6
-102.890976 -63.117432 0.158290 38 102 217 6
-51.949947 6.343614 -5.620362 38 102 217 6
-56.126671 -18.373653 -5.695652 38 102 217 6
-50.424625 105.087402 -5.573298 38 102 217 6
-99.799316 20.196693 0.112630 38 102 217 6
-58.072468 -8.163478 -5.766173 38 102 217 6
-49.693825 22.604261 -5.970578 38 102 217 6
48.382404 4.565681 0.541165 38 102 217 6
-57.979561 103.111908 -5.921372 38 102 217 6
-79.714363 3.150581 1.511249 38 102 217 6
45.157635 4.683004 0.737639 38 102 217 6
-35.545231 1.858561 1.495444 38 102 217 6
-57.914810 -18.774242 -5.737182 38 102 217 6
-99.274460 5.286682 0.086152 38 102 217 6
-56.021271 18.381973 -5.405136 38 102 217 6
-56.854340 19.058130 -6.186325 38 102 217 6
-40.463764 5.696765 1.674872 38 102 217 6
-55.449890 20.840004 -5.403201 38 102 217 6
-98.883446 -84.665367 -0.267031 38 102 217 6
-57.396320 -5.548068 -5.519448 38 102 217 6
-97.923233 95.863586 1.151291 38 102 217 6
-97.763710 93.958794 2.103687 38 102 217 6
-50.508804 106.996696 -5.324944 38 102 217 6
-99.091003 6.136677 0.125848 38 102 217 6
-48.936707 21.678661 -6.371272 38 102 217 6
-51.115791 9.902571 -5.069641 38 102 217 6
-71.960342 -42.853790 0.009159 38 102 217 6
-97.660004 5.514630 0.331415 38 102 217 6
-100.951859 43.386471 0.338080 38 102 217 6
-98.100227 -87.246056 -0.320139 38 102 217 6
-102.355980 -66.244011 -0.373614 38 102 217 6
3.850235 3.160376 1.183180 38 102 217 6
59.742565 3.491608 1.194525 38 102 217 6
-85.736633 -49.577103 -0.696923 38 102 217 6
-99.472275 19.901356 0.353147 38 102 217 6
-55.447628 3.406648 -6.289114 38 102 217 6
-47.321999 10.417323 -5.558997 38 102 217 6
-77.170212 -41.358398 -0.127898 38 102 217 6
-58.760021 67.955513 -5.721941 38 102 217 6
-47.615227 9.579392 -5.430689 38 102 217 6
-80.413879 -42.959644 -0.265360 38 102 217 6
-101.563423 61.960884 -0.084137 38 102 217 6
-52.694855 5.991869 -3.088580 38 102 217 6
-98.256813 84.529984 -0.150147 38 102 217 6
-99.683624 39.778194 -0.479816 38 102 217 6
-57.012581 -9.300395 -6.227093 38 102 217 6
-99.386322 20.152618 0.012569 38 102 217 6
-100.468925 -65.850731 0.183774 38 102 217 6
-55.709595 20.618036 -6.369282 38 102 217 6
-56.631088 -5.244109 -5.592591 38 102 217 6
-83.163803 -48.767445 -0.006353 38 102 217 6
-49.608253 104.228836 -5.606860 38 102 217 6
-87.276245 1.795040 3.189315 38 102 217 6
-97.258316 4.609453 0.032333 38 102 217 6
-101.466515 41.176010 -0.328840 38 102 217 6
-51.138771 82.926308 -5.334329 38 102 217 6
-100.807014 60.685314 0.031365 38 102 217 6
-57.955742 -4.734295 -5.775598 38 102 217 6
-55.906853 -20.157566 -6.365272 38 102 217 6
-95.497490 -31.093096 0.131700 38 102 217 6
-101.866463 61.002750 -0.255292 38 102 217 6
-97.814812 37.368919 1.028140 38 102 217 6
-53.592438 9.886189 -6.039354 38 102 217 6
-54.219246 29.706024 -5.583041 38 102 217 6
-33.836914 2.481544 3.033346 38 102 217 6
-101.680237 46.394421 0.329130 38 102 217 6
-58.135578 100.387863 -5.779014 38 102 217 6
-48.966667 7.468218 -6.368472 38 102 217 6
-50.522659 21.600487 -6.323420 38 102 217 6
-55.918556 -9.102460 -6.345290 38 102 217 6
-54.989559 3.925315 -5.778721 38 102 217 6
-101.794899 -60.934166 0.392477 38 102 217 6
-54.616989 31.787857 -5.375328 38 102 217 6
-77.076523 -41.730671 -0.611168 38 102 217 6
-50.861561 82.034607 -5.448424 38 102 217 6
-52.736824 36.251564 -4.987547 38 102 217 6
-52.007168 30.291756 -5.935879 38 102 217 6
-58.553082 69.842102 -5.525259 38 102 217 6
-56.330719 -6.504221 -6.211908 38 102 217 6
-34.634895 2.218269 1.132432 38 102 217 6
-102.017639 -65.793777 0.560651 38 102 217 6
-58.654305 99.906517 -5.725694 38 102 217 6
-57.606636 -19.549686 -6.010443 38 102 217 6
-99.236992 8.295171 -0.367772 38 102 217 6
-101.551567 -60.133953 0.396301 38 102 217 6
-58.233410 103.149651 -6.281711 38 102 217 6
-98.475723 83.806252 -0.204862 38 102 217 6
-99.051888 85.977806 0.035914 38 102 217 6
-103.124535 -63.252167 0.349667 38 102 217 6
-55.675472 -21.525190 -5.744443 38 102 217 6
-101.724037 -64.490677 0.323656 38 102 217 6
-56.675476 18.617058 -5.577481 38 102 217 6
-100.226517 40.059196 1.369616 38 102 217 6
-55.037510 20.711712 -5.704037 38 102 217 6
-98.494598 43.534283 1.041336 38 102 217 6
-50.534046 107.295280 -5.601664 38 102 217 6
-97.300018 -38.380085 1.111887 38 102 217 6
-73.781685 -43.035591 -0.383647 38 102 217 6
6.154416 2.896858 0.706839 38 102 217 6
-95.640137 -33.055935 0.252953 38 102 217 6
-56.384655 18.781054 -5.403834 38 102 217 6
-99.377563 -40.896038 1.851566 38 102 217 6
-57.606171 -19.438347 -5.371656 38 102 217 6
-56.013779 21.497498 -5.862230 38 102 217 6
-69.520996 -42.636623 -0.326051 38 102 217 6
-57.795120 71.841187 -5.583195 38 102 217 6
-99.360886 41.011898 3.057799 38 102 217 6
47.653515 4.965886 0.651182 38 102 217 6
-53.617676 35.646851 -2.929761 38 102 217 6
-101.032890 19.263260 0.263992 38 102 217 6
-71.805359 -44.492294 -0.152912 38 102 217 6
-99.147423 84.546600 -0.455076 38 102 217 6
-103.370529 -62.796246 0.156175 38 102 217 6
-99.181503 44.179169 -0.219361 38 102 217 6
-47.242668 10.666319 -6.002667 38 102 217 6
-56.248898 -18.835163 -5.887956 38 102 217 6
-48.838936 105.233665 -5.849972 38 102 217 6
-101.636421 -63.055759 -0.448374 38 102 217 6
-55.575161 2.279323 -3.827130 38 102 217 6
-47.232124 10.942290 -6.030827 38 102 217 6
-99.625847 92.978249 0.068415 38 102 217 6
-101.226456 -91.879784 0.476921 38 102 217 6
-100.743729 57.825203 -0.091504 38 102 217 6
-99.204887 86.813553 -0.406759 38 102 217 6
5.058096 3.968108 1.036343 38 102 217 6
-85.024071 -47.967350 0.053343 38 102 217 6
-100.795639 15.832257 -0.248584 38 102 217 6
-99.396278 84.421768 0.638827 38 102 217 6
-68.945374 -43.561665 0.136118 38 102 217 6
57.886066 1.815517 0.452024 38 102 217 6
-49.375751 19.437244 -5.401389 38 102 217 6
-101.783691 -64.266754 -0.140656 38 102 217 6
-95.330933 -29.872484 0.110918 38 102 217 6
-100.417229 61.125057 -0.295447 38 102 217 6
-87.490585 0.979949 1.139066 38 102 217 6
-49.040878 7.935224 -5.429668 38 102 217 6
-57.191032 -5.501274 -5.504615 38 102 217 6
-49.622429 18.618584 -6.185820 38 102 217 6
-49.083027 21.457315 -5.468990 38 102 217 6
-58.598938 101.502403 -5.915858 38 102 217 6
-96.678650 36.042446 0.608174 38 102 217 6
-48.976044 107.279770 -6.009293 38 102 217 6
-97.339951 -37.794930 0.298067 38 102 217 6
-72.708313 -42.921318 -0.783099 38 102 217 6
-54.519352 7.022885 -5.590746 38 102 217 6
-55.882469 20.866220 -5.203725 38 102 217 6
-56.819984 -7.382526 -6.377025 38 102 217 6
-101.647812 -64.647903 0.246439 38 102 217 6
-47.997303 11.666840 -5.397764 38 102 217 6
-98.483177 -91.323677 1.187254 38 102 217 6
-51.346802 83.907295 -5.682752 38 102 217 6
-35.040852 1.700050 1.455440 38 102 217 6
-97.547424 -33.371010 0.144837 38 102 217 6
-58.079727 71.823372 -5.576102 38 102 217 6
-97.582878 7.854393 0.309923 38 102 217 6
-96.837563 -32.941982 -0.467987 38 102 217 6
-99.768562 43.348068 -0.479816 38 102 217 6
-57.950619 -18.629719 -5.663478 38 102 217 6
-95.399422 -32.494999 0.085140 38 102 217 6
-97.495560 7.205763 0.091924 38 102 217 6
-56.757778 -8.326480 -5.611369 38 102 217 6
-98.747444 42.669220 2.730303 38 102 217 6
-89.503716 1.400322 3.262447 38 102 217 6
-48.653194 10.345856 -5.568365 38 102 217 6
-50.629845 105.745972 -5.946702 38 102 217 6
-101.192116 43.724808 -0.269510 38 102 217 6
-50.303707 21.279543 -5.420897 38 102 217 6
-101.706894 60.692257 0.186312 38 102 217 6
-97.085419 37.948639 0.307687 38 102 217 6
-97.947853 92.662102 2.480361 38 102 217 6
-102.313538 -65.693344 -0.369469 38 102 217 6
5.843090 4.347831 0.863200 38 102 217 6
-95.750824 -33.114841 0.222550 38 102 217 6
-41.270561 3.966441 1.308133 38 102 217 6
-78.811623 -41.842476 -0.339316 38 102 217 6
-97.654984 9.164904 0.236528 38 102 217 6
-98.010719 37.847473 1.801888 38 102 217 6
-99.568405 18.887896 0.373686 38 102 217 6
-101.384636 15.895115 -0.360673 38 102 217 6
-70.473671 -43.320660 -0.289726 38 102 217 6
-48.805626 20.304640 -5.654790 38 102 217 6
-78.166847 -41.330040 -0.080278 38 102 217 6
-55.540417 3.757869 -5.811767 38 102 217 6
-97.881264 87.047775 0.420170 38 102 217 6
-98.159050 -86.525894 1.616659 38 102 217 6
-100.589302 16.040503 -0.479816 38 102 217 6
4.953747 3.787267 1.083298 38 102 217 6
-50.298466 84.013123 -5.693782 38 102 217 6
-55.281319 18.156097 -5.573164 38 102 217 6
-73.033867 -42.628693 -0.369481 38 102 217 6
-53.201744 2.694392 -3.322843 38 102 217 6
-48.515961 8.186944 -5.401986 38 102 217 6
-101.950233 61.868237 0.446325 38 102 217 6
-58.037148 -8.088418 -6.181494 38 102 217 6
-51.138557 82.027855 -5.321876 38 102 217 6
-58.571274 101.688484 -6.132707 38 102 217 6
-99.246994 18.854847 0.215473 38 102 217 6
-49.940613 107.767647 -6.375685 38 102 217 6
-97.180870 37.963169 -0.435906 38 102 217 6
-51.249058 9.822883 -5.250138 38 102 217 6
-52.628235 2.730231 -6.278759 38 102 217 6
-98.475334 -37.494621 1.620209 38 102 217 6
-55.571213 18.228857 -5.533652 38 102 217 6
-96.757759 -39.196693 1.931836 38 102 217 6
-99.761726 37.330723 0.464004 38 102 217 6
-98.714104 95.635506 0.514373 38 102 217 6
-51.009453 9.775011 -6.162440 38 102 217 6
-52.863323 33.592278 -6.366524 38 102 217 6
-102.812485 -61.854084 0.176839 38 102 217 6
-87.173080 1.441683 0.783121 38 102 217 6
-73.359718 -42.788284 -0.205522 38 102 217 6
-57.876568 -17.865601 -5.585494 38 102 217 6
-58.348446 101.756447 -5.825142 38 102 217 6
-102.768539 -68.679764 0.338947 38 102 217 6
-55.092037 22.107403 -5.895435 38 102 217 6
-55.091763 20.806732 -5.666840 38 102 217 6
-98.224136 84.083015 0.336787 38 102 217 6
-97.944557 41.427055 0.654384 38 102 217 6
44.608631 3.408796 0.585962 38 102 217 6
-50.069408 21.313560 -6.381279 38 102 217 6
46.996841 3.890688 1.207328 38 102 217 6
-54.201595 36.438793 -5.113841 38 102 217 6
-97.965973 -86.427650 -0.187630 38 102 217 6
45.223457 5.164419 0.747950 38 102 217 6
-100.830528 19.022589 0.537083 38 102 217 6
-88.683258 3.873003 1.299824 38 102 217 6
-99.115402 -84.647064 1.521651 38 102 217 6
-97.556915 39.784641 1.830013 38 102 217 6
-95.737900 -33.548210 -0.378790 38 102 217 6
-97.399757 5.766103 -0.425970 38 102 217 6
-54.751835 6.030982 -5.302860 38 102 217 6
-100.151985 47.718323 0.211832 38 102 217 6
-54.511837 30.966784 -6.071721 38 102 217 6
-101.650368 45.880039 1.387590 38 102 217 6
-50.602406 104.987244 -6.272265 38 102 217 6
-99.622742 92.049492 0.521379 38 102 217 6
-86.508469 4.120576 0.413990 38 102 217 6
-86.582916 -49.374977 -0.587386 38 102 217 6
44.824467 3.611682 0.917452 38 102 217 6
-98.232063 96.284492 1.068678 38 102 217 6
59.860283 2.909806 0.807308 38 102 217 6
-70.419853 -42.956940 0.140413 38 102 217 6
-84.174515 -48.782089 0.069120 38 102 217 6
2.896292 3.363955 0.392994 38 102 217 6
-57.035515 -9.304543 -6.156414 38 102 217 6
-98.577957 84.121246 0.206499 38 102 217 6
-97.610893 7.805178 0.093790 38 102 217 6
-54.208183 33.598213 -3.237333 38 102 217 6
-99.619843 58.481796 0.202509 38 102 217 6
-47.783951 9.276170 -5.122445 38 102 217 6
-56.624142 -5.958349 -5.721153 38 102 217 6
-52.644756 35.427116 -5.041076 38 102 217 6
-100.881248 -68.246620 -0.062953 38 102 217 6
5.783720 3.324990 0.157873 38 102 217 6
-48.560856 11.159952 -6.375749 38 102 217 6
-96.759285 36.496983 2.174556 38 102 217 6
-73.736893 -44.169373 -0.612096 38 102 217 6
-52.943695 29.785007 -5.329049 38 102 217 6
-49.788113 21.735065 -5.612212 38 102 217 6
-69.572006 -44.142727 -0.051613 38 102 217 6
-56.200600 21.009020 -5.657289 38 102 217 6
-90.526070 3.182824 0.925759 38 102 217 6
2.995500 4.236340 0.795466 38 102 217 6
-98.721603 40.629982 3.019048 38 102 217 6
-102.334686 -66.160492 -0.446585 38 102 217 6
-56.017975 -8.232809 -5.948402 38 102 217 6
-49.103317 22.029617 -6.378857 38 102 217 6
-50.933800 9.587634 -5.367110 38 102 217 6
-57.358311 67.882126 -5.680827 38 102 217 6
-97.478149 -33.384769 -0.442352 38 102 217 6
-51.620934 31.126844 -6.134663 38 102 217 6
-51.655251 11.455976 -4.382906 38 102 217 6
-99.245781 93.139687 2.467226 38 102 217 6
3.212497 4.762671 0.926205 38 102 217 6
-51.943211 82.548538 -5.497270 38 102 217 6
-56.341591 -7.152916 -5.559430 38 102 217 6
-102.649139 -63.119377 0.178582 38 102 217 6
-101.126549 -92.782501 -0.456380 38 102 217 6
46.303280 3.345490 1.183126 38 102 217 6
-57.870872 -7.044373 -5.753645 38 102 217 6
-98.530487 83.570175 -0.182677 38 102 217 6
-100.068932 40.440651 -0.193417 38 102 217 6
48.193092 3.585138 0.752583 38 102 217 6
60.164532 4.245082 0.285886 38 102 217 6
-33.136208 1.850195 0.500563 38 102 217 6
-49.285927 22.540075 -5.824613 38 102 217 6
-78.218933 -42.111576 -0.148387 38 102 217 6
48.225487 4.167863 0.322711 38 102 217 6
-95.262108 -30.845757 -0.177922 38 102 217 6
-99.618492 39.099426 2.610078 38 102 217 6
-40.057037 5.268600 2.782799 38 102 217 6
-52.683197 3.546552 -5.293177 38 102 217 6
-101.469040 -65.913200 -0.474175 38 102 217 6
-57.143444 -21.887609 -6.329714 38 102 217 6
-57.965443 101.811813 -5.313037 38 102 217 6
-54.232323 7.716919 -3.744243 38 102 217 6
-97.512115 8.455526 -0.278981 38 102 217 6
-56.245277 -6.976457 -6.132406 38 102 217 6
-99.111565 4.519498 -0.001301 38 102 217 6
-54.571831 34.177677 -4.957111 38 102 217 6
-50.334076 19.688122 -6.168362 38 102 217 6
-57.989502 -19.154371 -5.932447 38 102 217 6
-99.069145 41.694660 1.058759 38 102 217 6
-101.130630 45.213486 1.781743 38 102 217 6
44.856697 3.497038 0.151697 38 102 217 6
-49.181892 10.414041 -6.216619 38 102 217 6
-101.261894 58.947933 0.520498 38 102 217 6
-82.608841 -48.121586 -0.447453 38 102 217 6
-99.138939 19.867403 -0.167103 38 102 217 6
-100.145241 45.367123 0.478031 38 102 217 6
-56.479717 -7.654816 -5.233450 38 102 217 6
-55.880363 22.014336 -6.093514 38 102 217 6
-80.038437 3.071959 2.903908 38 102 217 6
-78.412567 -41.666149 0.028699 38 102 217 6
-98.562271 86.018333 0.458009 38 102 217 6
-54.146324 29.500189 -5.446230 38 102 217 6
-50.444839 22.371300 -6.367897 38 102 217 6
-99.231415 5.355019 0.166219 38 102 217 6
-99.041382 19.205153 -0.226152 38 102 217 6
-49.801640 21.386127 -5.846789 38 102 217 6
-101.067406 43.696312 0.721653 38 102 217 6
-97.416641 94.179184 0.013181 38 102 217 6
-101.052299 59.498398 0.109048 38 102 217 6
-33.633537 2.023278 2.099560 38 102 217 6
-78.277878 -42.392803 -0.164003 38 102 217 6
-58.588444 67.946526 -5.965941 38 102 217 6
-97.846680 91.576447 0.528724 38 102 217 6
-47.502876 10.301908 -5.366146 38 102 217 6
43.980499 3.787851 0.960006 38 102 217 6
6.161902 2.943679 1.128283 38 102 217 6
-49.913651 20.180351 -5.620070 38 102 217 6
46.451004 4.493261 0.959624 38 102 217 6
-100.577545 47.161335 1.163693 38 102 217 6
-52.055569 82.111862 -6.070562 38 102 217 6
-56.516209 -18.590467 -5.622907 38 102 217 6
-49.427734 8.498243 -5.869545 38 102 217 6
-99.195923 36.715992 -0.082685 38 102 217 6
-100.871033 61.262585 0.219789 38 102 217 6
-55.132183 35.639481 -3.127790 38 102 217 6
-69.906830 -42.714951 -0.181787 38 102 217 6
-96.076180 -29.724480 -0.128987 38 102 217 6
-98.614197 85.572517 -0.471030 38 102 217 6
-47.302818 9.091912 -6.203639 38 102 217 6
-56.797283 68.734581 -6.337589 38 102 217 6
-98.025047 86.313004 0.323484 38 102 217 6
-56.548969 19.121096 -5.436585 38 102 217 6
-57.597885 99.449608 -5.288982 38 102 217 6
-33.776226 1.589015 3.041866 38 102 217 6
-53.728283 2.159060 -4.121450 38 102 217 6
-99.702316 47.743382 -0.168080 38 102 217 6
-98.374329 95.582405 0.526339 38 102 217 6
-100.510956 -66.794250 0.317348 38 102 217 6
-81.070488 5.241624 0.754303 38 102 217 6
-49.053169 10.327705 -5.350323 38 102 217 6
5.974161 3.942496 1.126610 38 102 217 6
-101.267212 58.970135 0.429017 38 102 217 6
-53.625202 4.568918 -6.365952 38 102 217 6
-97.835114 37.893311 1.772552 38 102 217 6
-99.820854 84.947380 0.435486 38 102 217 6
-99.967598 -91.243080 1.985409 38 102 217 6
44.038963 4.839526 0.921244 38 102 217 6
45.658577 3.252146 0.909964 38 102 217 6
-48.549164 10.330098 -5.435176 38 102 217 6
2.159770 4.003456 1.053088 38 102 217 6
-58.546246 69.972633 -5.777311 38 102 217 6
-52.097183 83.820602 -6.136494 38 102 217 6
-58.441616 67.938843 -5.613978 38 102 217 6
-100.560333 40.792553 0.730959 38 102 217 6
-99.077400 84.301239 0.363115 38 102 217 6
-52.607563 34.428513 -3.852643 38 102 217 6
-51.785320 83.028870 -5.335037 38 102 217 6
-80.360817 -42.484123 -0.826814 38 102 217 6
-56.204014 -7.913342 -5.486098 38 102 217 6
-99.732780 58.727581 0.052105 38 102 217 6
-84.369560 -48.796509 -0.199413 38 102 217 6
-83.019821 -49.584698 -0.297081 38 102 217 6
-81.785667 -48.516029 -0.465492 38 102 217 6
-57.742451 -4.695706 -5.795695 38 102 217 6
-35.437820 4.064827 2.099546 38 102 217 6
-100.782501 17.969639 0.635059 38 102 217 6
-54.704517 6.232861 -5.805788 38 102 217 6
-47.549374 10.303684 -5.561591 38 102 217 6
44.224918 3.331846 0.358164 38 102 217 6
-50.616550 108.417404 -6.090184 38 102 217 6
45.404144 3.395475 1.064170 38 102 217 6
-55.816395 22.289209 -5.858452 38 102 217 6
-54.886963 19.956266 -5.097116 38 102 217 6
-50.517059 21.918303 -6.040444 38 102 217 6
-38.350658 2.831101 1.030738 38 102 217 6
-100.768501 -68.399834 -0.384513 38 102 217 6
-99.219620 -89.334007 1.967339 38 102 217 6
-97.848396 6.427093 0.614343 38 102 217 6
-57.039837 99.755150 -6.163566 38 102 217 6
-99.533730 17.373524 0.216762 38 102 217 6
59.545597 3.030227 0.735965 38 102 217 6
-57.289970 -20.774982 -5.807165 38 102 217 6
-52.124573 84.945251 -6.162062 38 102 217 6
-99.391563 86.895142 0.030172 38 102 217 6
-98.968346 95.790649 1.609694 38 102 217 6
-101.379852 -92.547295 -0.315529 38 102 217 6
-100.567734 57.867359 -0.219663 38 102 217 6
-50.662075 84.933502 -5.463258 38 102 217 6
-99.954376 20.213242 -0.479715 38 102 217 6
-101.536079 -63.218845 0.120170 38 102 217 6
47.516209 3.253109 0.327504 38 102 217 6
-37.623234 4.804070 1.387374 38 102 217 6
-101.262238 59.912624 0.323325 38 102 217 6
-98.631737 37.617825 -0.449471 38 102 217 6
-80.735153 -41.760429 -0.045070 38 102 217 6
-101.935127 -59.472557 0.598215 38 102 217 6
-101.491241 47.643700 -0.347639 38 102 217 6
-34.352215 1.918974 0.160665 38 102 217 6
-100.346764 -66.150253 0.168939 38 102 217 6
-48.158699 8.173294 -5.273089 38 102 217 6
-49.646271 106.734993 -6.376966 38 102 217 6
-99.747238 92.701614 1.561523 38 102 217 6
-88.954971 1.077960 0.152640 38 102 217 6
-54.297680 20.630060 -5.999780 38 102 217 6
-100.056587 18.818262 0.080713 38 102 217 6
-96.967621 -39.467918 -0.058000 38 102 217 6
-57.171043 -4.738822 -6.095971 38 102 217 6
-49.727081 20.668148 -5.376118 38 102 217 6
-100.909981 43.820675 0.301170 38 102 217 6
-53.486141 8.559575 -6.378583 38 102 217 6
-52.264175 84.073463 -5.716808 38 102 217 6
-70.643578 -42.883335 -0.315318 38 102 217 6
-80.694244 -41.192909 -0.073879 38 102 217 6
-101.382591 -63.199097 -0.041635 38 102 217 6
-57.565624 72.200699 -6.243791 38 102 217 6
-96.491806 -33.580654 -0.423373 38 102 217 6
-56.043243 -18.710388 -6.147105 38 102 217 6
-99.153305 4.721348 0.244881 38 102 217 6
-101.126259 58.598244 -0.180976 38 102 217 6
47.046673 4.787071 0.936130 38 102 217 6
-99.749275 84.560364 0.207104 38 102 217 6
-33.766422 1.347579 1.001534 38 102 217 6
-98.075409 -85.465675 1.798492 38 102 217 6
-97.534828 -40.118767 1.281121 38 102 217 6
59.170628 2.750000 0.488957 38 102 217 6
-79.438599 4.648965 0.151697 38 102 217 6
-97.077888 37.073696 1.548148 38 102 217 6
-98.930847 -91.588242 -0.471396 38 102 217 6
-101.128746 -66.528419 -0.007993 38 102 217 6
-97.329506 -38.219131 1.244863 38 102 217 6
-97.519005 -33.376656 -0.052050 38 102 217 6
-51.522087 82.202667 -5.803800 38 102 217 6
-57.219795 -20.817652 -6.030375 38 102 217 6
-97.132523 -31.789431 0.250717 38 102 217 6
47.437618 3.219167 0.641669 38 102 217 6
-80.984795 -41.943024 0.112685 38 102 217 6
-100.212791 20.169979 0.356745 38 102 217 6
-57.316822 -21.187826 -6.142150 38 102 217 6
-97.438812 -32.686764 -0.163722 38 102 217 6
-47.813511 7.307613 -5.726697 38 102 217 6
-35.696331 2.033406 1.126471 38 102 217 6
-95.157715 -29.906883 0.148760 38 102 217 6
-99.410187 8.338202 -0.323991 38 102 217 6
-103.219353 -62.821060 0.071119 38 102 217 6
-83.150162 -48.445442 0.340243 38 102 217 6
-97.421112 5.780987 0.276338 38 102 217 6
-57.183956 -4.741158 -6.023029 38 102 217 6
-97.520142 35.822792 1.014582 38 102 217 6
-101.160164 58.053894 0.330901 38 102 217 6
-100.071266 57.986271 -0.257329 38 102 217 6
-97.652695 -42.789040 0.496471 38 102 217 6
-78.874046 -42.230110 -0.819178 38 102 217 6
-48.928196 20.374306 -5.622392 38 102 217 6
44.341976 4.028742 0.151697 38 102 217 6
-54.569649 20.930935 -5.716889 38 102 217 6
-101.500145 -64.685555 0.337522 38 102 217 6
-101.533173 61.834148 -0.003704 38 102 217 6
-54.748058 22.021069 -6.086696 38 102 217 6
-88.671165 3.902994 0.404111 38 102 217 6
-97.438744 7.277354 -0.149224 38 102 217 6
-102.449280 -61.219246 0.161137 38 102 217 6
-97.363113 5.756401 -0.479816 38 102 217 6
-101.205742 16.779688 0.554673 38 102 217 6
-35.490143 3.898338 1.607842 38 102 217 6
-100.883835 -64.842690 -0.431022 38 102 217 6
-100.613861 -67.894577 0.051021 38 102 217 6
45.186916 5.166450 0.410252 38 102 217 6
-48.475155 11.550491 -5.914797 38 102 217 6
-49.721783 108.456947 -5.831674 38 102 217 6
-73.752808 -43.766624 -0.617997 38 102 217 6
-98.002350 4.573339 0.134119 38 102 217 6
-97.125694 -40.796608 1.167219 38 102 217 6
-101.567223 42.983246 -0.365838 38 102 217 6
-50.501663 105.192047 -5.677384 38 102 217 6
-78.961075 -40.756714 -0.179865 38 102 217 6
-73.625366 -44.443691 -0.826292 38 102 217 6
-49.135754 22.561947 -5.793124 38 102 217 6
-100.942619 -93.101799 1.659295 38 102 217 6
-77.475800 -41.775742 0.115296 38 102 217 6
-55.738899 -20.459986 -5.533827 38 102 217 6
-98.349777 90.296280 -0.464367 38 102 217 6
-54.613480 20.466543 -5.848826 38 102 217 6
-101.519661 42.597969 1.253412 38 102 217 6
-81.193237 3.337280 3.325636 38 102 217 6
-99.614624 16.615534 0.378546 38 102 217 6
-97.385864 89.927788 0.897896 38 102 217 6
46.490086 3.733570 0.735900 38 102 217 6
-97.053329 -31.390684 0.423414 38 102 217 6
-98.955292 -85.179413 1.073916 38 102 217 6
46.964520 3.309284 1.093563 38 102 217 6
59.776340 3.324676 0.968091 38 102 217 6
-48.558769 19.354170 -5.925694 38 102 217 6
-50.539165 104.233467 -5.858100 38 102 217 6
-100.178383 45.403206 1.201412 38 102 217 6
-58.461922 102.500557 -5.810772 38 102 217 6
-52.814941 35.553490 -5.039617 38 102 217 6
-55.376457 19.723043 -5.420522 38 102 217 6
-98.919853 -38.702671 0.255205 38 102 217 6
-56.646011 -6.120140 -5.769378 38 102 217 6
-98.294212 5.823584 0.627136 38 102 217 6
-53.520145 10.401287 -6.361934 38 102 217 6
-58.579540 69.336739 -5.428118 38 102 217 6
-100.109207 44.098099 1.292135 38 102 217 6
-101.448029 47.228889 0.595879 38 102 217 6
-97.050240 -39.140785 0.413038 38 102 217 6
-98.865929 44.049343 -0.437330 38 102 217 6
-82.531418 -49.605381 -0.564894 38 102 217 6
47.736305 4.876709 0.956768 38 102 217 6
-99.601913 -40.445835 -0.179623 38 102 217 6
5.114020 3.009363 0.300427 38 102 217 6
-50.024643 18.601536 -6.377578 38 102 217 6
-55.467464 -21.473654 -6.291219 38 102 217 6
-72.158928 -43.415119 -0.223801 38 102 217 6
-58.780773 67.993774 -6.381279 38 102 217 6
-78.621658 -42.357697 -0.416155 38 102 217 6
59.693821 3.422176 0.697218 38 102 217 6
-95.333176 -31.510296 0.090196 38 102 217 6
-100.971046 60.347237 -0.456480 38 102 217 6
-51.097878 85.091179 -5.733950 38 102 217 6
-51.718628 81.267776 -5.701207 38 102 217 6
-69.830734 -43.927311 -0.817250 38 102 217 6
-99.663094 58.662373 -0.064144 38 102 217 6
-56.251301 -7.764833 -6.172593 38 102 217 6
-98.018082 95.460762 1.187951 38 102 217 6
-49.236366 106.309196 -5.323247 38 102 217 6
-100.671783 40.786343 1.840289 38 102 217 6
-101.047966 18.391993 0.378702 38 102 217 6
4.786424 3.373332 0.153346 38 102 217 6
-49.784588 107.257637 -5.821615 38 102 217 6
-57.731495 -4.693724 -5.856733 38 102 217 6
-101.087753 -92.290726 -0.453937 38 102 217 6
-35.638420 3.426528 1.454781 38 102 217 6
-96.002647 -30.870417 0.778284 38 102 217 6
-101.676315 46.345688 1.928804 38 102 217 6
-102.179878 -67.957146 0.339114 38 102 217 6
-100.867599 58.644073 0.298468 38 102 217 6
-55.431889 3.129502 -4.209975 38 102 217 6
-98.984756 85.142853 -0.479816 38 102 217 6
-99.126396 83.663422 -0.476778 38 102 217 6
-58.011726 -6.863522 -5.593894 38 102 217 6
-78.408012 -41.684238 0.100160 38 102 217 6
-49.375679 108.455223 -6.088905 38 102 217 6
-85.159706 -47.849052 -0.321210 38 102 217 6
-99.222412 83.545723 0.051533 38 102 217 6
60.031414 3.347435 0.967866 38 102 217 6
-98.050194 85.192703 0.252647 38 102 217 6
58.938469 3.043983 0.729455 38 102 217 6
-53.169411 11.810868 -4.240278 38 102 217 6
-99.698578 85.270859 0.529561 38 102 217 6
-85.944695 2.838165 3.457131 38 102 217 6
-51.774754 30.247131 -5.397512 38 102 217 6
-98.203491 -37.566521 0.099165 38 102 217 6
2.879282 3.060351 0.713613 38 102 217 6
-57.977528 70.369148 -5.341873 38 102 217 6
-99.199265 19.882040 -0.175325 38 102 217 6
-49.450371 108.455597 -6.096336 38 102 217 6
-57.965221 -6.200981 -5.511352 38 102 217 6
-103.057785 -59.712589 0.053926 38 102 217 6
-77.146294 -40.870781 -0.017830 38 102 217 6
-80.123886 -42.620384 -0.004748 38 102 217 6
-97.433693 -37.770134 1.423849 38 102 217 6
-49.295017 7.453095 -5.917959 38 102 217 6
-99.016708 -84.654854 -0.171088 38 102 217 6
-58.255966 70.888832 -5.345716 38 102 217 6
-56.663170 102.200729 -6.220887 38 102 217 6
-102.296425 -59.565346 -0.032796 38 102 217 6
60.185040 2.504122 0.161385 38 102 217 6
58.598217 2.529724 1.230685 38 102 217 6
-49.091045 106.803764 -5.647128 38 102 217 6
-95.609238 -31.999493 -0.479492 38 102 217 6
-50.468529 83.820229 -5.970294 38 102 217 6
-47.442497 10.486438 -6.039546 38 102 217 6
-88.060570 3.533359 0.482300 38 102 217 6
-98.728233 -38.880684 2.060852 38 102 217 6
-56.818886 -20.601942 -5.365449 38 102 217 6
4.739955 3.080586 0.727714 38 102 217 6
-49.094013 106.207169 -5.724801 38 102 217 6
-101.328293 58.311253 -0.135358 38 102 217 6
-79.002464 -40.882519 0.180764 38 102 217 6
44.933311 5.342932 0.186588 38 102 217 6
-55.842350 -20.593073 -5.833401 38 102 217 6
-34.569027 1.551769 2.435225 38 102 217 6
-55.301655 21.157820 -5.562237 38 102 217 6
-56.941483 99.706383 -6.305503 38 102 217 6
-57.977043 70.616905 -5.942181 38 102 217 6
-97.848854 -38.833370 0.491531 38 102 217 6
-98.155045 -44.348042 -0.295601 38 102 217 6
-55.630791 18.271824 -5.680442 38 102 217 6
-58.385578 71.006302 -5.434604 38 102 217 6
-56.677868 -5.349193 -5.796222 38 102 217 6
1.894692 3.414471 0.204976 38 102 217 6
-100.030762 16.217497 0.362772 38 102 217 6
44.706882 3.249710 0.788287 38 102 217 6
-99.860985 89.477882 0.192992 38 102 217 6
-56.972031 72.141113 -5.573292 38 102 217 6
-86.542053 -48.410049 -0.219135 38 102 217 6
-101.432419 -61.224495 -0.125226 38 102 217 6
-50.490635 84.659317 -5.578848 38 102 217 6
-54.313351 30.633478 -3.209348 38 102 217 6
-83.215614 -48.420338 -0.199218 38 102 217 6
-78.380035 -40.779121 -0.151149 38 102 217 6
-54.708134 22.011047 -5.910453 38 102 217 6
-97.006767 -30.485575 0.344996 38 102 217 6
-52.154099 81.805626 -5.872381 38 102 217 6
-70.067047 -42.658199 -0.384600 38 102 217 6
-78.504425 -41.725117 -0.826814 38 102 217 6
-99.834801 59.366798 -0.008653 38 102 217 6
-85.852470 -49.471882 -0.414025 38 102 217 6
-54.216663 6.821412 -3.374876 38 102 217 6
60.609726 2.247987 0.692706 38 102 217 6
-101.330307 -64.728859 -0.048755 38 102 217 6
-84.588684 1.859596 1.821400 38 102 217 6
-55.700615 22.420101 -5.461474 38 102 217 6
-98.538918 36.753410 -0.466384 38 102 217 6
-48.838367 21.104271 -6.378010 38 102 217 6
-101.522713 60.630836 0.190702 38 102 217 6
-80.501762 -40.993580 -0.562252 38 102 217 6
44.687222 4.883383 0.967179 38 102 217 6
-102.043472 -66.688652 0.195014 38 102 217 6
-102.010353 46.253822 -0.231555 38 102 217 6
-100.924828 57.926888 -0.479816 38 102 217 6
-80.370926 5.315914 0.181484 38 102 217 6
-97.556725 91.027962 0.669564 38 102 217 6
-57.859226 -4.716834 -5.660544 38 102 217 6
-50.124504 105.570404 -6.365363 38 102 217 6
44.978405 3.917316 0.164073 38 102 217 6
-39.484371 3.020101 0.585836 38 102 217 6
-53.549641 32.410198 -5.300895 38 102 217 6
-100.121445 84.504028 -0.092159 38 102 217 6
47.316448 5.048065 0.458946 38 102 217 6
-101.429840 -59.719490 -0.379295 38 102 217 6
-98.289909 95.941658 0.518805 38 102 217 6
-82.964569 -48.976154 -0.171106 38 102 217 6
-100.191711 -65.981583 0.358363 38 102 217 6
58.672939 3.701579 1.240223 38 102 217 6
-101.392700 16.367172 0.149303 38 102 217 6
-102.161743 -65.863579 0.095968 38 102 217 6
-49.001141 20.763401 -6.374135 38 102 217 6
-99.340576 -89.762985 0.346335 38 102 217 6
-102.458374 -67.886139 0.746753 38 102 217 6
-49.089397 107.134712 -5.677759 38 102 217 6
-101.973305 -67.267921 -0.478997 38 102 217 6
-57.179127 72.180466 -5.963531 38 102 217 6
56.614502 3.469206 0.343110 38 102 217 6
-97.450668 -32.338409 -0.450093 38 102 217 6
-90.321861 1.778737 1.257175 38 102 217 6
-56.695068 -19.905193 -6.381279 38 102 217 6
-97.187653 -41.135296 0.304073 38 102 217 6
-103.082581 -62.832428 -0.354635 38 102 217 6
-99.565216 37.747395 0.624939 38 102 217 6
-82.384308 4.298384 3.306853 38 102 217 6
-56.966255 68.904358 -5.661633 38 102 217 6
-101.488968 -62.312450 -0.308847 38 102 217 6
-54.910774 20.622335 -5.218989 38 102 217 6
-97.549667 92.704773 0.521262 38 102 217 6
-56.859413 72.163727 -5.976124 38 102 217 6
-97.286087 5.698066 -0.156640 38 102 217 6
6.174420 3.021972 0.846787 38 102 217 6
-52.946922 9.648755 -5.282298 38 102 217 6
-54.657536 19.850073 -5.475420 38 102 217 6
-50.514217 83.799339 -6.371179 38 102 217 6
-57.024887 -17.784637 -5.652641 38 102 217 6
-85.609711 -49.117538 -0.117354 38 102 217 6
-77.863983 4.635931 2.145310 38 102 217 6
-50.540096 108.505852 -5.750187 38 102 217 6
-53.477600 10.376140 -5.914057 38 102 217 6
-100.970589 59.712673 0.606089 38 102 217 6
-50.633438 105.023994 -5.999804 38 102 217 6
-97.006325 -31.154026 0.756422 38 102 217 6
-80.627220 -41.043423 -0.786514 38 102 217 6
-58.710541 100.103615 -5.532054 38 102 217 6
-77.813187 -41.985584 -0.218984 38 102 217 6
-99.173424 42.425259 0.317982 38 102 217 6
-100.850357 -93.109077 1.480272 38 102 217 6
-90.487556 2.543554 0.638477 38 102 217 6
-81.360344 -42.966564 -0.266946 38 102 217 6
-97.461967 8.136917 -0.444628 38 102 217 6
-98.541878 43.385532 2.110008 38 102 217 6
-96.954529 -30.152672 0.221091 38 102 217 6
-102.716057 -67.656281 0.302744 38 102 217 6
-99.983734 -40.845013 0.394233 38 102 217 6
-58.560371 72.203598 -5.759337 38 102 217 6
-53.659397 36.518021 -5.216227 38 102 217 6
-57.966038 101.196274 -5.530022 38 102 217 6
-100.773682 -65.904633 0.248094 38 102 217 6
-99.843727 90.071526 1.464313 38 102 217 6
-58.327274 -5.828232 -6.307448 38 102 217 6
-99.494835 37.256073 -0.374326 38 102 217 6
-54.017132 30.724615 -5.300052 38 102 217 6
-98.708138 90.617126 2.459101 38 102 217 6
-97.646927 90.751884 0.073499 38 102 217 6
-79.857986 -41.141041 -0.824137 38 102 217 6
-99.077698 -85.473404 2.227575 38 102 217 6
-96.946983 -39.912083 1.324914 38 102 217 6
-81.677528 -41.706268 -0.048411 38 102 217 6
-101.564926 -59.603367 -0.120248 38 102 217 6
-57.164497 99.753723 -5.520277 38 102 217 6
-50.838589 83.460655 -6.006417 38 102 217 6
-69.027100 -43.886536 -0.122612 38 102 217 6
-51.673790 81.268875 -6.259175 38 102 217 6
-99.887886 58.030193 -0.388350 38 102 217 6
-102.278862 -63.357021 0.427844 38 102 217 6
-77.572517 -40.407249 -0.315386 38 102 217 6
-50.920486 83.916214 -6.381279 38 102 217 6
-48.150948 7.556815 -6.376498 38 102 217 6
-50.406937 83.177734 -5.555246 38 102 217 6
-54.864113 21.178499 -5.426533 38 102 217 6
-84.678581 -49.401894 0.142357 38 102 217 6
-52.131287 34.367958 -5.474475 38 102 217 6
-100.162079 -44.021370 0.750151 38 102 217 6
-82.676605 -47.954212 -0.612501 38 102 217 6
-98.960510 -39.741673 1.005503 38 102 217 6
-97.668930 86.967522 0.162069 38 102 217 6
44.882336 4.652678 0.960320 38 102 217 6
-51.970615 83.673836 -5.501409 38 102 217 6
45.342911 3.398879 0.742740 38 102 217 6
5.846635 2.793093 1.038795 38 102 217 6
-99.482574 37.864819 -0.062058 38 102 217 6
-51.427185 82.020828 -5.600181 38 102 217 6
-49.197880 9.995617 -6.343342 38 102 217 6
-51.976372 83.686966 -6.368471 38 102 217 6
59.108040 3.495379 1.236378 38 102 217 6
-95.487267 -29.841436 0.453388 38 102 217 6
-55.352997 21.565079 -6.381279 38 102 217 6
-55.048168 4.766657 -5.023210 38 102 217 6
-52.043354 81.610359 -5.671218 38 102 217 6
61.014126 3.770501 0.543391 38 102 217 6
-98.860275 5.603964 0.588440 38 102 217 6
-54.917213 18.815464 -5.993668 38 102 217 6
-48.643753 7.339332 -6.118759 38 102 217 6
-99.174644 40.869766 1.280481 38 102 217 6
-97.010330 -40.151573 2.045815 38 102 217 6
2.874389 4.088074 0.152992 38 102 217 6
-100.086906 61.045483 0.141516 38 102 217 6
-88.414352 1.066304 0.388227 38 102 217 6
-97.901550 89.123413 -0.178408 38 102 217 6
-53.004860 2.701944 -4.800967 38 102 217 6
-48.339245 10.148088 -5.795905 38 102 217 6
-50.648933 107.348244 -6.311017 38 102 217 6
-97.170830 94.207474 0.048288 38 102 217 6
-56.894421 71.129883 -6.085411 38 102 217 6
-98.389275 6.938280 0.098095 38 102 217 6
-69.068130 -42.848106 -0.198223 38 102 217 6
-52.008007 31.650211 -4.751351 38 102 217 6
-83.689316 2.447321 3.086998 38 102 217 6
-50.349827 82.362404 -6.304778 38 102 217 6
-90.021416 1.163164 2.303848 38 102 217 6
-55.417210 35.243580 -5.965158 38 102 217 6
-102.690575 -60.887611 0.221521 38 102 217 6
-96.920052 -30.074663 -0.466911 38 102 217 6
-58.708534 69.373604 -6.374156 38 102 217 6
-50.551624 104.921936 -5.831654 38 102 217 6
-70.625359 -42.801048 0.169701 38 102 217 6
-88.770073 2.897845 3.326416 38 102 217 6
2.092667 4.652668 0.215478 38 102 217 6
-50.754345 107.856567 -6.072016 38 102 217 6
-50.047695 22.182476 -5.589858 38 102 217 6
-47.247818 11.503601 -5.683415 38 102 217 6
-56.684971 17.495367 -5.836956 38 102 217 6
-102.620003 -67.483551 -0.403411 38 102 217 6
-84.162949 4.628726 1.717272 38 102 217 6
-55.984798 -9.114446 -6.340608 38 102 217 6
-101.447327 -67.178261 0.772869 38 102 217 6
-82.424652 2.810688 0.157265 38 102 217 6
-99.696045 38.026932 0.931260 38 102 217 6
-86.577118 -49.238091 -0.723176 38 102 217 6
-100.905220 57.786526 -0.167550 38 102 217 6
47.018818 4.286018 1.162567 38 102 217 6
-57.211578 103.141960 -5.669198 38 102 217 6
-69.046135 -43.404671 -0.344442 38 102 217 6
-95.043457 -30.051483 0.025748 38 102 217 6
-98.246056 84.322662 -0.276619 38 102 217 6
-99.007332 -38.564930 -0.005713 38 102 217 6
-35.336300 1.792901 1.952068 38 102 217 6
-99.923233 84.854622 0.334085 38 102 217 6
-56.134239 20.593199 -5.808223 38 102 217 6
-99.696213 47.024231 0.312703 38 102 217 6
-98.827263 -85.500801 0.356479 38 102 217 6
-37.523342 2.607581 0.640221 38 102 217 6
60.150898 3.993653 0.698192 38 102 217 6
-50.311668 19.534277 -5.877022 38 102 217 6
-57.270523 103.006500 -5.870053 38 102 217 6
-54.105560 36.192558 -3.820428 38 102 217 6
-58.869011 99.457764 -6.166091 38 102 217 6
60.262192 2.296295 0.159618 38 102 217 6
-73.756897 -43.663113 -0.528571 38 102 217 6
-99.582878 83.886925 -0.476809 38 102 217 6
-98.357605 35.654228 -0.479816 38 102 217 6
-99.194504 5.570175 0.283469 38 102 217 6
-99.020493 89.536804 1.901085 38 102 217 6
-56.897888 71.063660 -6.088592 38 102 217 6
-69.968163 -44.243168 -0.553604 38 102 217 6
-53.265770 1.894690 -3.987108 38 102 217 6
47.434292 5.041513 0.491197 38 102 217 6
-101.058090 -68.361130 -0.366394 38 102 217 6
-51.579411 84.961670 -5.687573 38 102 217 6
-102.042137 -68.864967 -0.341166 38 102 217 6
-85.586388 -48.566776 0.226355 38 102 217 6
-99.144157 4.532831 0.101989 38 102 217 6
-99.465096 47.227470 0.441250 38 102 217 6
-55.580708 20.941664 -6.377922 38 102 217 6
-57.303886 -21.240034 -6.193526 38 102 217 6
-50.200890 105.086288 -5.441908 38 102 217 6
-100.736488 58.675476 0.302064 38 102 217 6
-98.293144 35.838902 2.408457 38 102 217 6
-97.074722 -30.665417 -0.365186 38 102 217 6
-100.582916 -86.925331 1.625970 38 102 217 6
-58.616852 100.544807 -5.398283 38 102 217 6
4.807710 4.447701 0.316094 38 102 217 6
-51.242065 81.279388 -6.108969 38 102 217 6
58.051388 2.240966 0.970749 38 102 217 6
-100.931259 43.403934 2.334501 38 102 217 6
-56.298904 -17.678497 -6.111883 38 102 217 6
-102.896118 -60.876926 0.431069 38 102 217 6
-78.910522 -41.472179 -0.343831 38 102 217 6
-69.020020 -44.065685 -0.660585 38 102 217 6
-78.138245 3.650333 3.114618 38 102 217 6
45.548058 3.258290 0.394913 38 102 217 6
-100.976921 62.101360 0.081875 38 102 217 6
-53.586147 10.551741 -4.119326 38 102 217 6
2.081936 4.585553 1.016945 38 102 217 6
-56.682503 102.158745 -6.039117 38 102 217 6
-79.626434 -41.039555 0.148476 38 102 217 6
-98.753258 -92.334938 -0.212424 38 102 217 6
-81.650429 -41.813953 -0.505835 38 102 217 6
-54.693920 34.123657 -5.289509 38 102 217 6
-102.146675 -68.838318 0.465325 38 102 217 6
-56.691738 102.841301 -5.432065 38 102 217 6
-57.255028 -21.437227 -6.106161 38 102 217 6
-56.721684 17.504581 -5.539014 38 102 217 6
-100.918953 -90.008347 -0.303136 38 102 217 6
-85.286522 -49.324200 -0.314565 38 102 217 6
-57.043365 -5.145600 -5.504887 38 102 217 6
-99.141884 94.166862 0.542946 38 102 217 6
-52.215073 82.057274 -6.083776 38 102 217 6
-48.989937 11.570159 -5.873266 38 102 217 6
-101.321327 -68.176041 0.237894 38 102 217 6
-99.561676 84.484283 0.480487 38 102 217 6
-99.520378 -40.242023 1.435889 38 102 217 6
-98.032249 -85.952423 0.129476 38 102 217 6
-101.149918 -91.900429 0.494597 38 102 217 6
-99.365288 46.072826 2.044962 38 102 217 6
-51.944397 82.597305 -5.378409 38 102 217 6
-49.262993 8.291277 -6.014709 38 102 217 6
-39.674442 5.593612 0.254100 38 102 217 6
-100.200951 -65.016800 -0.408107 38 102 217 6
-99.184326 90.000252 2.482961 38 102 217 6
-80.128807 -41.769642 0.117282 38 102 217 6
-50.175087 19.570124 -5.974851 38 102 217 6
-101.227989 61.907246 -0.190074 38 102 217 6
-100.713234 -68.284348 0.256569 38 102 217 6
57.588753 2.673930 0.737342 38 102 217 6
-70.599266 -43.792286 -0.339482 38 102 217 6
-97.057320 -38.585934 0.952725 38 102 217 6
-100.481133 -85.635201 1.148955 38 102 217 6
-98.232162 87.180412 -0.061331 38 102 217 6
-101.359787 16.675604 0.015498 38 102 217 6
-58.192177 -5.635676 -6.200866 38 102 217 6
-101.398582 43.601612 -0.146140 38 102 217 6
-95.312843 -29.750372 0.574568 38 102 217 6
-97.033997 35.949688 1.619537 38 102 217 6
-100.275139 -44.374588 -0.260938 38 102 217 6
-99.280739 8.742492 0.178925 38 102 217 6
-101.565971 -61.550884 0.359264 38 102 217 6
-57.781830 72.349503 -5.725364 38 102 217 6
-102.875221 -61.739403 0.432170 38 102 217 6
-97.198341 -31.475943 -0.315912 38 102 217 6
-49.964035 104.230606 -5.651013 38 102 217 6
-100.913063 -90.420998 1.907191 38 102 217 6
-101.410751 45.974842 2.096746 38 102 217 6
-99.246407 93.077301 2.492563 38 102 217 6
-58.131557 100.295189 -5.771941 38 102 217 6
-47.349316 8.673409 -5.911187 38 102 217 6
-95.819862 -33.018303 0.187135 38 102 217 6
-100.463936 -65.831177 -0.445761 38 102 217 6
-50.440006 108.460518 -5.632405 38 102 217 6
-83.824440 -48.179348 -0.425007 38 102 217 6
-56.671261 -5.412944 -5.690090 38 102 217 6
-101.075096 58.594372 0.258827 38 102 217 6
-98.202713 84.437325 -0.226985 38 102 217 6
-47.320637 8.625449 -5.841273 38 102 217 6
-56.239407 18.396566 -5.511654 38 102 217 6
-54.235222 29.487200 -6.149543 38 102 217 6
-99.859070 47.710449 1.688231 38 102 217 6
-80.250175 5.727375 0.391947 38 102 217 6
-100.703987 59.221981 0.090104 38 102 217 6
-56.587074 -6.969237 -5.229423 38 102 217 6
-49.563545 105.116142 -5.598100 38 102 217 6
-73.786369 -42.917130 -0.587578 38 102 217 6
-101.906288 60.555359 -0.010578 38 102 217 6
-100.861938 -89.428368 0.237551 38 102 217 6
5.328563 3.548145 0.937645 38 102 217 6
-57.450073 103.033195 -5.762164 38 102 217 6
-58.418980 99.762497 -6.378803 38 102 217 6
-58.546383 69.970032 -5.594386 38 102 217 6
-57.618275 100.663368 -5.772788 38 102 217 6
3.348462 4.797557 0.258368 38 102 217 6
45.579578 3.256538 0.930419 38 102 217 6
-54.257603 34.223591 -3.608910 38 102 217 6
58.875866 3.926764 0.754238 38 102 217 6
-58.232250 68.798592 -5.472216 38 102 217 6
45.803528 3.799268 0.155251 38 102 217 6
-98.170647 4.947675 0.319473 38 102 217 6
-49.059406 8.569534 -6.001265 38 102 217 6
-99.738777 84.551231 0.352768 38 102 217 6
-99.032715 46.191029 -0.221091 38 102 217 6
-53.530586 11.241497 -4.428255 38 102 217 6
-98.371735 83.990158 0.081388 38 102 217 6
-97.544403 96.259270 0.278594 38 102 217 6
-99.756088 17.445093 -0.474334 38 102 217 6
-97.237602 -33.432541 -0.145379 38 102 217 6
57.995510 3.617884 1.095418 38 102 217 6
-57.407639 -20.973665 -5.687441 38 102 217 6
-99.874641 59.545597 0.124072 38 102 217 6
-98.778061 -93.745026 0.305668 38 102 217 6
-84.922203 -47.971664 0.129511 38 102 217 6
-34.511143 2.152115 0.156411 38 102 217 6
-48.997612 19.512289 -6.377030 38 102 217 6
-56.976810 -5.704041 -5.686059 38 102 217 6
-57.993805 -18.024696 -5.863425 38 102 217 6
-98.616936 95.996216 1.881888 38 102 217 6
-52.005947 84.204643 -6.376429 38 102 217 6
-58.541660 71.140999 -5.802944 38 102 217 6
-41.568886 4.555625 0.640294 38 102 217 6
-99.337494 94.090630 0.519031 38 102 217 6
-39.133343 4.701926 1.037688 38 102 217 6
-90.203857 1.234029 1.280448 38 102 217 6
-71.028381 -43.665352 -0.421497 38 102 217 6
-98.034523 37.841259 2.120940 38 102 217 6
-98.171677 -44.020084 0.482556 38 102 217 6
-80.797005 -41.334160 0.146169 38 102 217 6
-97.789642 -39.649624 0.307161 38 102 217 6
-98.079796 -85.521347 1.640456 38 102 217 6
-101.721870 -68.073914 0.615590 38 102 217 6
-50.620781 82.453148 -6.380414 38 102 217 6
-99.415329 18.482975 0.522967 38 102 217 6
-55.371456 19.555582 -5.103643 38 102 217 6
-48.594784 11.555062 -5.570924 38 102 217 6
-85.629608 4.310978 1.530894 38 102 217 6
-58.452488 101.650398 -5.349917 38 102 217 6
-47.584576 9.431967 -5.131401 38 102 217 6
-55.251156 33.941544 -5.729115 38 102 217 6
-48.857777 20.662724 -5.692955 38 102 217 6
-99.754898 18.336985 -0.476207 38 102 217 6
-97.327644 4.606089 -0.377673 38 102 217 6
47.846676 4.162102 0.981298 38 102 217 6
-101.710732 -68.076759 0.211290 38 102 217 6
-99.372154 17.682070 -0.188229 38 102 217 6
-98.731293 95.132599 0.707020 38 102 217 6
-103.073929 -60.023117 0.015850 38 102 217 6
-48.717953 19.358950 -6.003612 38 102 217 6
-54.285004 29.479925 -5.878227 38 102 217 6
-100.049042 40.834606 1.879221 38 102 217 6
-100.230194 60.560768 0.185000 38 102 217 6
-49.322762 107.297028 -5.812135 38 102 217 6
-54.725479 20.922976 -5.588422 38 102 217 6
-83.111130 -48.100311 -0.199575 38 102 217 6
-49.484848 22.511106 -5.952170 38 102 217 6
-56.787849 101.450134 -6.304047 38 102 217 6
-103.194153 -62.336231 0.097092 38 102 217 6
-97.989067 6.749955 0.603384 38 102 217 6
-48.972359 21.735064 -6.240233 38 102 217 6
-98.104546 7.119213 0.604639 38 102 217 6
-69.798317 -42.659431 -0.559456 38 102 217 6
-97.912888 -43.457474 1.869063 38 102 217 6
-47.454071 8.588591 -5.412076 38 102 217 6
6.191245 3.967172 1.057201 38 102 217 6
-56.897884 18.884644 -5.616220 38 102 217 6
-98.081680 94.824699 2.764015 38 102 217 6
-99.175774 18.783394 -0.017154 38 102 217 6
61.131100 2.532684 0.343523 38 102 217 6
-88.070763 2.690114 3.430011 38 102 217 6
-54.689182 35.655010 -5.308380 38 102 217 6
-97.658714 -37.710617 -0.316741 38 102 217 6
1.957263 3.805810 0.318458 38 102 217 6
-79.664314 3.454102 1.584870 38 102 217 6
-85.576080 -48.323441 -0.041220 38 102 217 6
47.008965 4.108770 1.061491 38 102 217 6
-97.323051 -32.534695 0.334119 38 102 217 6
43.993095 4.014435 0.571537 38 102 217 6
-70.360977 -42.511852 -0.402837 38 102 217 6
-48.838909 105.238998 -5.865747 38 102 217 6
-52.045601 31.907484 -4.591082 38 102 217 6
-97.099510 5.383494 -0.222819 38 102 217 6
-77.963097 5.093408 1.628096 38 102 217 6
-49.090149 106.984016 -5.352624 38 102 217 6
-98.218689 -88.315674 0.147097 38 102 217 6
-99.913696 -43.980701 0.325337 38 102 217 6
-100.777603 15.830333 -0.410706 38 102 217 6
-97.630798 86.268532 0.303073 38 102 217 6
-55.647129 -20.309168 -5.665003 38 102 217 6
-54.764530 30.611197 -5.878171 38 102 217 6
-57.968632 -7.101727 -5.386232 38 102 217 6
-47.413296 10.298485 -5.586817 38 102 217 6
