ply
format ascii 1.0
element vertex 1140
property float x
property float y
property float z
property uchar red
property uchar green
property uchar blue
property int label
end_header
-77.775024 -62.378689 -0.882324 89 89 89 1
-104.591927 -92.327728 -0.539304 89 89 89 1
-96.629936 23.477114 -0.541835 89 89 89 1
-69.515770 -51.338806 -0.899032 89 89 89 1
-111.665649 2.147169 0.074477 89 89 89 1
35.203350 -78.575073 -0.036921 89 89 89 1
-94.203133 -21.920788 -0.531981 89 89 89 1
11.918973 -81.050331 -0.046430 89 89 89 1
-97.454788 -11.828114 -0.539171 89 89 89 1
-95.353477 35.440659 -0.533672 89 89 89 1
-62.734989 2.412316 0.104733 89 89 89 1
-93.487534 56.049366 -0.548577 89 89 89 1
-113.274437 5.142409 0.082779 89 89 89 1
-104.347763 86.517624 -0.541306 89 89 89 1
-95.586349 -27.109285 -0.545442 89 89 89 1
-51.268143 5.125925 -6.449532 89 89 89 1
-9.180611 5.519841 0.083393 89 89 89 1
-101.130783 46.563995 -0.545129 89 89 89 1
-52.045368 33.687782 -6.417392 89 89 89 1
-52.840416 16.403217 -6.438654 89 89 89 1
-57.433601 43.246819 -6.453102 89 89 89 1
-48.605846 -15.734815 -6.447296 89 89 89 1
-56.138393 62.412525 -6.456928 89 89 89 1
-83.144188 6.290872 0.106013 89 89 89 1
-70.997139 -51.732300 -0.886322 89 89 89 1
-94.658524 -31.669724 -0.545062 89 89 89 1
-65.977249 -47.071102 -0.886901 89 89 89 1
-49.131596 37.172733 -6.451949 89 89 89 1
-47.555916 13.540030 -6.430927 89 89 89 1
-57.429974 16.302147 -6.460176 89 89 89 1
-57.958546 -10.767426 -6.443602 89 89 89 1
-54.429703 82.728806 -6.438054 89 89 89 1
-54.920536 32.189770 -6.440861 89 89 89 1
-63.822891 -44.271641 -0.891200 89 89 89 1
-98.227013 34.279110 -0.538168 89 89 89 1
-45.950146 92.251556 -6.445767 89 89 89 1
-103.117027 33.929588 -0.570832 89 89 89 1
-99.796036 -1.780281 -0.542898 89 89 89 1
-89.428719 1.187398 0.091437 89 89 89 1
-65.928246 0.208455 0.095460 89 89 89 1
-105.302856 5.466082 0.092237 89 89 89 1
-26.810616 6.014693 0.094496 89 89 89 1
-94.942032 99.194374 -0.539962 89 89 89 1
-101.275986 87.790413 -0.531035 89 89 89 1
-18.465132 1.664643 0.072927 89 89 89 1
-101.868179 49.066147 -0.548797 89 89 89 1
-93.849876 85.628342 -0.556923 89 89 89 1
-79.664589 -62.542160 -0.892889 89 89 89 1
-79.237328 -47.381920 -0.896505 89 89 89 1
-23.551006 4.741865 0.092462 89 89 89 1
-64.230560 -48.122734 -0.889327 89 89 89 1
41.837486 6.804193 0.095418 89 89 89 1
-47.323448 71.629066 -6.466440 89 89 89 1
-46.565586 92.893929 -6.435220 89 89 89 1
-48.441730 94.759689 -6.460542 89 89 89 1
-59.812340 -9.768431 -6.439953 89 89 89 1
-97.650856 73.248657 -0.525076 89 89 89 1
-94.065994 -57.265957 -0.539284 89 89 89 1
-104.293541 -1.853654 -0.536522 89 89 89 1
-103.930870 12.368368 -0.564229 89 89 89 1
-83.683151 -62.523170 -0.915992 89 89 89 1
54.867004 2.602490 0.083444 89 89 89 1
-57.232018 22.909704 -6.457278 89 89 89 1
-55.384735 2.682965 0.079257 89 89 89 1
-99.119316 28.691818 -0.556218 89 89 89 1
-49.026428 96.239105 -6.462348 89 89 89 1
-9.990874 1.901294 0.079322 89 89 89 1
-73.953720 1.555002 0.102530 89 89 89 1
-99.179306 79.104782 -0.556851 89 89 89 1
-101.974937 -14.007671 -0.531545 89 89 89 1
-56.791752 14.390642 -6.457334 89 89 89 1
-47.961590 -16.164223 -6.462493 89 89 89 1
-83.213348 -39.988323 -0.880884 89 89 89 1
-56.066895 3.838640 -6.451305 89 89 89 1
-80.415009 4.213375 0.083941 89 89 89 1
29.477554 4.708899 0.078982 89 89 89 1
-46.789242 89.254845 -6.422078 89 89 89 1
-44.359539 0.486568 0.093981 89 89 89 1
-54.992237 103.480896 -6.442682 89 89 89 1
-98.314842 10.345309 -0.564595 89 89 89 1
-97.839119 -28.852839 -0.536258 89 89 89 1
-102.233910 103.400208 -0.556053 89 89 89 1
-57.138817 -16.408039 -6.458088 89 89 89 1
14.212232 1.762767 0.100622 89 89 89 1
-16.651716 4.096691 0.081503 89 89 89 1
-52.226624 107.690765 -6.450623 89 89 89 1
-107.150902 3.451799 0.080902 89 89 89 1
-104.991783 25.792002 -0.555964 89 89 89 1
1.112344 5.819279 0.093082 89 89 89 1
-47.060757 55.348312 -6.432842 89 89 89 1
15.651519 -79.792076 -0.037759 89 89 89 1
-50.484047 24.584713 -6.439474 89 89 89 1
-103.900742 23.633884 -0.528241 89 89 89 1
-71.318306 -59.008316 -0.882446 89 89 89 1
-28.920309 2.776993 0.100873 89 89 89 1
3.331708 0.155595 0.098428 89 89 89 1
-95.601044 -35.275730 -0.540252 89 89 89 1
-101.819496 25.112970 -0.559738 89 89 89 1
-88.819664 -52.433929 -0.899280 89 89 89 1
-77.869621 -50.063408 -0.898105 89 89 89 1
1.789653 2.104974 0.095589 89 89 89 1
-74.224709 -56.202267 -0.875874 89 89 89 1
-83.329063 -41.689667 -0.890559 89 89 89 1
-95.767776 52.400208 -0.536971 89 89 89 1
-88.693855 -43.703575 -0.868704 89 89 89 1
-60.175884 10.305764 -6.442569 89 89 89 1
-60.024239 11.680501 -6.441861 89 89 89 1
-55.201744 44.325397 -6.435618 89 89 89 1
-97.275368 -79.316147 -0.525594 89 89 89 1
117.837563 40.187622 -2.171623 89 89 89 1
-57.748642 80.201523 -6.434376 89 89 89 1
-66.563148 -54.550297 -0.910929 89 89 89 1
-90.542770 -58.448162 -0.896944 89 89 89 1
-54.194916 33.636017 -6.461962 89 89 89 1
-78.948921 -52.863956 -0.889368 89 89 89 1
5.033988 -80.858635 -0.039028 89 89 89 1
-108.172340 5.358894 0.089815 89 89 89 1
-59.822716 85.652428 -6.425325 89 89 89 1
-100.979462 98.179146 -0.544655 89 89 89 1
-104.139427 -8.663687 -0.528945 89 89 89 1
-50.020710 107.681061 -6.456819 89 89 89 1
-50.238647 61.455399 -6.441051 89 89 89 1
-100.150566 -49.261551 -0.563390 89 89 89 1
-48.205013 -20.995041 -6.444456 89 89 89 1
-103.242767 -10.935351 -0.550730 89 89 89 1
-99.796616 -34.001625 -0.554634 89 89 89 1
-95.031570 94.148613 -0.552486 89 89 89 1
-75.220284 -63.491692 -0.889041 89 89 89 1
-47.501980 84.746925 -6.433890 89 89 89 1
11.504557 -77.719673 -0.029702 89 89 89 1
-103.051659 21.933554 -0.552909 89 89 89 1
-80.564087 -46.458782 -0.885224 89 89 89 1
-76.271614 -55.881081 -0.899202 89 89 89 1
-46.875973 -24.414194 -6.439939 89 89 89 1
-98.241318 9.778652 -0.535849 89 89 89 1
9.487145 4.374726 0.091231 89 89 89 1
-88.109581 0.999136 0.089239 89 89 89 1
-47.009872 8.613564 -6.457945 89 89 89 1
-54.071407 39.798386 -6.457208 89 89 89 1
-13.502331 4.313786 0.079970 89 89 89 1
-102.995781 79.454666 -0.544884 89 89 89 1
-93.490791 4.113952 -0.545696 89 89 89 1
-62.632252 1.615476 0.102374 89 89 89 1
22.408653 4.505301 0.072027 89 89 89 1
-98.802856 -15.699407 -0.548126 89 89 89 1
-71.836418 19.230543 -3.518980 89 89 89 1
-58.160751 -29.850561 -6.438310 89 89 89 1
-50.685959 91.189789 -6.443493 89 89 89 1
-73.152969 5.192070 0.085608 89 89 89 1
-65.565353 -63.137264 -0.899059 89 89 89 1
-54.901009 53.191135 -6.444316 89 89 89 1
-102.676849 -61.100597 -0.558780 89 89 89 1
-50.131111 94.959602 -6.454034 89 89 89 1
-66.492157 -51.338707 -0.896884 89 89 89 1
-53.888863 4.182293 -6.445803 89 89 89 1
-94.704033 -62.754463 -0.522355 89 89 89 1
-59.689407 5.844366 -6.440518 89 89 89 1
-52.538036 35.066734 -6.454586 89 89 89 1
-96.621346 97.288307 -0.528092 89 89 89 1
-57.634190 -18.567333 -6.424726 89 89 89 1
13.363941 0.489702 0.081834 89 89 89 1
-94.999413 -39.344891 -0.534366 89 89 89 1
28.123671 -76.601517 -0.036174 89 89 89 1
-56.722214 -21.455050 -6.462222 89 89 89 1
-52.116314 6.081235 0.074353 89 89 89 1
-20.170383 -80.519478 -0.035534 89 89 89 1
-55.325447 60.110485 -6.444905 89 89 89 1
52.767918 0.068597 0.106842 89 89 89 1
-100.164070 28.831711 -0.546317 89 89 89 1
-58.078938 -27.703278 -6.443266 89 89 89 1
-20.230690 2.189250 0.071764 89 89 89 1
-100.925636 10.222790 -0.550051 89 89 89 1
-100.737923 -3.868007 -0.560192 89 89 89 1
-85.692551 -56.950939 -0.893009 89 89 89 1
-87.491470 -56.639133 -0.898424 89 89 89 1
-94.302635 56.861202 -0.554376 89 89 89 1
-59.437889 -5.741825 -6.452873 89 89 89 1
-60.290157 32.202816 -6.448190 89 89 89 1
-103.700600 -43.748802 -0.555987 89 89 89 1
-102.085068 22.160522 -0.546128 89 89 89 1
-94.660240 -25.600107 -0.546707 89 89 89 1
-96.428909 5.976034 0.068827 89 89 89 1
-54.287247 102.782356 -6.434738 89 89 89 1
-47.802685 -23.975832 -6.448300 89 89 89 1
-53.715431 57.434628 -6.448183 89 89 89 1
114.427666 42.504120 -2.158843 89 89 89 1
-34.532539 1.410300 0.097293 89 89 89 1
-59.777927 48.461662 -6.432879 89 89 89 1
-67.513885 -47.243824 -0.898422 89 89 89 1
-58.414482 0.603055 -6.452199 89 89 89 1
-92.370384 5.294601 0.095414 89 89 89 1
-99.552643 83.659630 -0.539747 89 89 89 1
-104.301666 107.864655 -0.546827 89 89 89 1
-54.324310 67.457840 -6.455302 89 89 89 1
-59.672409 -2.573798 -6.444616 89 89 89 1
-100.211594 -1.033029 -0.538414 89 89 89 1
-55.283775 63.667862 -6.455656 89 89 89 1
-97.137604 -40.642605 -0.552591 89 89 89 1
-97.729706 57.767406 -0.544946 89 89 89 1
-59.783501 33.732731 -6.447060 89 89 89 1
-50.312515 11.576003 -6.447684 89 89 89 1
-74.806618 5.468636 0.088545 89 89 89 1
-102.229652 18.485281 -0.566674 89 89 89 1
-51.747192 -1.925752 -6.455431 89 89 89 1
6.733761 -80.959045 -0.049475 89 89 89 1
-96.459099 -12.216837 -0.541014 89 89 89 1
-97.132576 84.003395 -0.550999 89 89 89 1
-50.495144 71.996422 -6.436746 89 89 89 1
-50.944885 80.772751 -6.444173 89 89 89 1
-103.800697 67.604424 -0.544397 89 89 89 1
-59.688560 3.127001 -6.438385 89 89 89 1
-57.457226 20.825409 -6.426640 89 89 89 1
-5.178585 -78.674652 -0.041777 89 89 89 1
-88.860069 -60.013577 -0.881401 89 89 89 1
24.060869 5.638324 0.075038 89 89 89 1
-98.712120 25.076019 -0.540465 89 89 89 1
-94.474785 18.920931 -3.511658 89 89 89 1
-94.550125 -80.586441 -0.527070 89 89 89 1
-54.981670 32.289574 -6.437066 89 89 89 1
70.425613 0.458072 0.078092 89 89 89 1
-104.908752 90.507004 -0.544829 89 89 89 1
-99.252724 23.489433 -0.542455 89 89 89 1
-52.048248 51.960606 -6.442766 89 89 89 1
-96.951881 24.674082 -0.551293 89 89 89 1
-38.183487 4.972042 0.086125 89 89 89 1
-76.902428 3.481404 0.081647 89 89 89 1
-90.427124 -41.569134 -0.906680 89 89 89 1
-73.225220 -42.586380 -0.886255 89 89 89 1
-59.374626 100.222870 -6.458340 89 89 89 1
-13.776414 -79.749809 -0.031082 89 89 89 1
-46.344440 34.563908 -6.452391 89 89 89 1
79.374329 1.279871 0.064643 89 89 89 1
-55.862404 50.596275 -6.442946 89 89 89 1
-54.648373 101.411758 -6.420357 89 89 89 1
-69.978630 6.395302 0.073499 89 89 89 1
24.430922 0.328797 0.088087 89 89 89 1
-60.074841 67.987762 -6.434817 89 89 89 1
-99.601936 -46.642307 -0.557670 89 89 89 1
-106.162506 1.082156 0.090491 89 89 89 1
-76.201538 -40.275177 -0.903473 89 89 89 1
-77.994110 3.083162 0.092496 89 89 89 1
-80.369171 1.313071 0.091027 89 89 89 1
-105.008163 55.178577 -0.540513 89 89 89 1
-93.753143 -37.604565 -0.553170 89 89 89 1
63.229843 5.399572 0.092825 89 89 89 1
-67.788651 -45.619965 -0.885238 89 89 89 1
-94.608414 87.237236 -0.528832 89 89 89 1
-98.455513 15.113562 -0.540448 89 89 89 1
-13.108625 0.963929 0.096946 89 89 89 1
-99.313660 -19.775803 -0.539620 89 89 89 1
-81.215652 -38.754673 -0.897770 89 89 89 1
-51.432850 -16.001116 -6.458198 89 89 89 1
-59.359116 88.404343 -6.446259 89 89 89 1
-52.907047 7.378459 -6.443657 89 89 89 1
19.191044 -81.431000 -0.033135 89 89 89 1
-100.131157 57.200001 -0.543405 89 89 89 1
-45.835339 30.260836 -6.438635 89 89 89 1
-103.424629 79.869415 -0.529409 89 89 89 1
72.335587 6.775951 0.083301 89 89 89 1
-103.697479 13.665059 -0.530714 89 89 89 1
45.087971 0.952930 0.073306 89 89 89 1
-51.437901 -21.387661 -6.443277 89 89 89 1
-99.597275 65.364418 -0.551926 89 89 89 1
-99.584854 2.035124 -0.550025 89 89 89 1
-102.192444 29.095089 -0.541529 89 89 89 1
-102.735634 75.544441 -0.552426 89 89 89 1
-94.274826 13.660448 -0.521405 89 89 89 1
-38.524456 2.912585 0.089279 89 89 89 1
-68.981880 3.012119 0.073824 89 89 89 1
-110.212395 5.640234 0.079795 89 89 89 1
-48.521107 21.938244 -6.431809 89 89 89 1
-52.566151 52.443951 -6.434932 89 89 89 1
-53.223553 14.501360 -6.454587 89 89 89 1
-49.621372 -6.213143 -6.451142 89 89 89 1
-73.267967 -41.974834 -0.882964 89 89 89 1
-96.136154 19.306316 -0.544041 89 89 89 1
-113.564095 6.311300 0.082837 89 89 89 1
-82.553131 -61.529755 -0.869122 89 89 89 1
-82.706825 1.136683 0.065893 89 89 89 1
-45.950233 -17.840855 -6.468032 89 89 89 1
-82.764038 -60.807003 -0.898343 89 89 89 1
-49.768040 50.477020 -6.440337 89 89 89 1
-64.994316 -54.976841 -0.884565 89 89 89 1
-99.208488 -91.106323 -0.546838 89 89 89 1
-48.657688 98.291580 -6.461979 89 89 89 1
-75.329620 -62.074986 -0.901669 89 89 89 1
-50.994003 85.877480 -6.461069 89 89 89 1
-69.935280 -63.283066 -0.896890 89 89 89 1
-102.985886 86.090500 -0.554344 89 89 89 1
-65.966492 -57.436985 -0.887350 89 89 89 1
-96.603279 -59.297565 -0.564484 89 89 89 1
-95.022621 54.702034 -0.548458 89 89 89 1
-49.870609 90.217628 -6.460690 89 89 89 1
-54.548233 31.649691 -6.449403 89 89 89 1
-51.833382 48.099724 -6.450899 89 89 89 1
33.962589 0.867308 0.084466 89 89 89 1
-86.641045 6.190623 0.107649 89 89 89 1
-52.232674 19.156523 -6.439019 89 89 89 1
5.456296 -77.155365 -0.034238 89 89 89 1
-57.208981 93.192497 -6.442166 89 89 89 1
-95.749969 -1.624013 -0.543727 89 89 89 1
-59.075062 24.867418 -6.447714 89 89 89 1
-76.123154 -39.040985 -0.883265 89 89 89 1
-79.179070 18.107567 -3.508705 89 89 89 1
-3.249805 -80.217148 -0.034398 89 89 89 1
-99.485954 -43.312046 -0.563518 89 89 89 1
-56.319191 2.949293 -6.440296 89 89 89 1
-45.870514 94.575058 -6.434316 89 89 89 1
-98.803017 -67.478409 -0.549771 89 89 89 1
19.483400 -78.840340 -0.022753 89 89 89 1
-82.515190 -42.523544 -0.891030 89 89 89 1
-103.053581 91.248100 -0.554264 89 89 89 1
-83.257591 17.601501 -3.507049 89 89 89 1
-102.396454 58.895889 -0.561647 89 89 89 1
-57.918541 -4.290215 -6.442056 89 89 89 1
-48.425457 -10.449651 -6.446936 89 89 89 1
-96.022141 -64.211716 -0.555250 89 89 89 1
-95.215706 -64.077568 -0.561390 89 89 89 1
-50.593769 66.069489 -6.447388 89 89 89 1
-54.886696 47.396103 -6.461064 89 89 89 1
-99.260132 -82.217911 -0.557236 89 89 89 1
-50.916119 42.297859 -6.450130 89 89 89 1
-30.032368 2.479499 0.087932 89 89 89 1
-51.742710 61.631989 -6.436604 89 89 89 1
-60.266918 82.586128 -6.442055 89 89 89 1
-103.795074 -65.451248 -0.559120 89 89 89 1
-97.221870 -11.691261 -0.537728 89 89 89 1
-57.981544 -19.166245 -6.433219 89 89 89 1
-59.901402 70.416954 -6.449136 89 89 89 1
-66.578316 -42.099342 -0.905803 89 89 89 1
-47.983780 -27.972549 -6.448820 89 89 89 1
-102.440163 78.772896 -0.530651 89 89 89 1
-60.365967 76.334854 -6.434568 89 89 89 1
-52.809490 50.646706 -6.452209 89 89 89 1
68.381744 0.560246 0.094135 89 89 89 1
-25.781820 2.687953 0.084551 89 89 89 1
-97.964523 81.697182 -0.559907 89 89 89 1
13.102905 6.430643 0.102964 89 89 89 1
-52.387230 -23.176855 -6.444751 89 89 89 1
-94.235992 -19.776434 -0.557090 89 89 89 1
-82.267220 6.013913 0.092726 89 89 89 1
-46.403835 94.740166 -6.443449 89 89 89 1
56.620567 3.707238 0.089672 89 89 89 1
-99.334961 -0.644378 -0.555659 89 89 89 1
-59.360638 50.862087 -6.456875 89 89 89 1
-99.298187 42.084488 -0.559367 89 89 89 1
-51.651329 43.347393 -6.447898 89 89 89 1
-53.216553 -28.240854 -6.443432 89 89 89 1
-57.012043 82.595886 -6.468209 89 89 89 1
-98.866875 -77.670792 -0.528125 89 89 89 1
-77.847763 18.534025 -3.518013 89 89 89 1
-47.498482 86.943665 -6.438368 89 89 89 1
-45.853355 32.600319 -6.453523 89 89 89 1
-57.612404 66.773628 -6.433889 89 89 89 1
-104.266312 -21.946241 -0.528706 89 89 89 1
-75.845116 2.405910 0.084197 89 89 89 1
-103.540764 54.106171 -0.553738 89 89 89 1
-97.393951 -18.863577 -0.531063 89 89 89 1
-68.203941 -56.994202 -0.908760 89 89 89 1
-83.760185 -48.386753 -0.882603 89 89 89 1
-56.031021 29.578310 -6.437595 89 89 89 1
60.175861 2.796269 0.088711 89 89 89 1
-94.755875 3.559251 0.085976 89 89 89 1
-101.714653 61.176540 -0.545678 89 89 89 1
71.217758 4.916781 0.101822 89 89 89 1
26.754831 -78.833664 -0.038934 89 89 89 1
-52.653122 57.876167 -6.440543 89 89 89 1
-77.558868 -62.180283 -0.918822 89 89 89 1
-46.771091 67.006538 -6.449036 89 89 89 1
-96.116638 102.972839 -0.541431 89 89 89 1
-56.989487 34.748577 -6.465947 89 89 89 1
-54.547024 22.062012 -6.445839 89 89 89 1
-102.419533 -83.837898 -0.540724 89 89 89 1
-94.594933 -35.586807 -0.537071 89 89 89 1
-99.059357 9.996222 -0.555475 89 89 89 1
-98.886673 43.572632 -0.554638 89 89 89 1
-86.005203 19.008032 -3.518521 89 89 89 1
-56.200562 77.485168 -6.429595 89 89 89 1
-79.714142 19.370060 -3.523400 89 89 89 1
-95.112579 86.967140 -0.546670 89 89 89 1
29.187494 -78.378242 -0.040408 89 89 89 1
-53.573875 -13.966019 -6.439314 89 89 89 1
-95.216545 -69.819679 -0.551114 89 89 89 1
-47.288937 6.233856 0.092437 89 89 89 1
-58.816391 58.188450 -6.453856 89 89 89 1
53.288414 1.200112 0.065668 89 89 89 1
-94.194168 -76.238197 -0.528355 89 89 89 1
-81.556564 -53.442486 -0.898207 89 89 89 1
-37.632099 1.912782 0.082117 89 89 89 1
-17.998962 -80.480576 -0.031204 89 89 89 1
-93.921684 102.447090 -0.551569 89 89 89 1
-102.683655 12.579446 -0.539484 89 89 89 1
-95.006371 -2.499175 -0.548257 89 89 89 1
-101.811440 66.110275 -0.551863 89 89 89 1
-47.997787 -29.545572 -6.447016 89 89 89 1
-50.346264 -29.290047 -6.436356 89 89 89 1
-23.617262 2.179829 0.080442 89 89 89 1
-94.396187 1.648633 -0.548713 89 89 89 1
-97.537926 21.844055 -0.544465 89 89 89 1
-54.015911 52.497662 -6.458333 89 89 89 1
-50.228508 20.951948 -6.450554 89 89 89 1
-96.222176 -37.242165 -0.547325 89 89 89 1
-55.936108 36.753181 -6.447526 89 89 89 1
-96.550468 33.324585 -0.550171 89 89 89 1
-98.429886 25.638447 -0.537943 89 89 89 1
-100.086441 1.793681 0.087096 89 89 89 1
-101.795624 -43.874924 -0.546236 89 89 89 1
62.735367 4.536408 0.085333 89 89 89 1
-51.612606 44.175659 -6.441168 89 89 89 1
-93.815231 -91.325241 -0.533701 89 89 89 1
-58.844631 31.147781 -6.446183 89 89 89 1
-76.761536 6.781678 0.086863 89 89 89 1
33.693466 -81.212570 -0.043109 89 89 89 1
-60.048325 56.254688 -6.454558 89 89 89 1
-101.334236 81.448135 -0.550395 89 89 89 1
-74.241600 -40.115337 -0.907499 89 89 89 1
-47.921722 106.494545 -6.432189 89 89 89 1
-60.354130 89.425972 -6.424148 89 89 89 1
-55.041813 -22.697098 -6.455462 89 89 89 1
-103.846558 15.738360 -0.533720 89 89 89 1
-57.701004 93.249123 -6.438441 89 89 89 1
-101.191017 -49.557529 -0.543052 89 89 89 1
-73.027008 -48.951508 -0.915802 89 89 89 1
24.889317 -76.205582 -0.035606 89 89 89 1
-102.502907 -72.243904 -0.551770 89 89 89 1
-99.649185 76.274559 -0.548882 89 89 89 1
-76.530281 -53.424931 -0.912775 89 89 89 1
-105.102661 -60.057129 -0.538296 89 89 89 1
-103.662720 56.471802 -0.541137 89 89 89 1
-96.267113 -10.187881 -0.544324 89 89 89 1
-95.002892 -27.078457 -0.541480 89 89 89 1
18.144781 6.152493 0.086670 89 89 89 1
108.239670 41.290730 -2.169806 89 89 89 1
-101.998291 92.072540 -0.567227 89 89 89 1
-94.859291 79.064667 -0.544841 89 89 89 1
-80.691864 -42.072617 -0.901326 89 89 89 1
-85.191399 -47.411682 -0.890745 89 89 89 1
-101.848068 12.756044 -0.528120 89 89 89 1
-88.887199 -61.073467 -0.891639 89 89 89 1
-48.813519 46.138847 -6.451317 89 89 89 1
-93.357407 -17.673008 -0.555304 89 89 89 1
-90.865120 4.867253 0.090798 89 89 89 1
-2.034290 -78.206642 -0.036058 89 89 89 1
-104.225090 81.871483 -0.541551 89 89 89 1
-52.232304 60.704212 -6.446671 89 89 89 1
-54.130806 80.256195 -6.455196 89 89 89 1
-50.624977 -19.312309 -6.438923 89 89 89 1
-57.339752 95.958229 -6.447038 89 89 89 1
-43.292542 4.624292 0.089716 89 89 89 1
-57.400494 107.899757 -6.464890 89 89 89 1
-95.440163 -8.138346 -0.545784 89 89 89 1
-46.388821 -4.014388 -6.440150 89 89 89 1
-95.645126 32.350361 -0.549047 89 89 89 1
-56.571655 17.770298 -6.447053 89 89 89 1
-47.177334 1.302965 -6.445026 89 89 89 1
-56.468021 93.603378 -6.429878 89 89 89 1
76.545013 3.355723 0.091386 89 89 89 1
-60.251411 -10.132076 -6.450001 89 89 89 1
-49.692383 -8.344141 -6.457721 89 89 89 1
-34.476894 4.129568 0.089971 89 89 89 1
-56.431664 10.535019 -6.446760 89 89 89 1
-108.617256 6.095866 0.083433 89 89 89 1
-88.331841 -41.141998 -0.886613 89 89 89 1
-50.799255 0.560841 -6.449287 89 89 89 1
69.642693 5.460906 0.090766 89 89 89 1
-103.728165 -16.457943 -0.556565 89 89 89 1
39.034298 5.988504 0.092015 89 89 89 1
-40.882397 0.703974 0.093170 89 89 89 1
-96.327362 22.923458 -0.548943 89 89 89 1
-23.458626 0.383500 0.083672 89 89 89 1
-51.268238 95.381767 -6.454141 89 89 89 1
-50.939739 21.636866 -6.432592 89 89 89 1
97.002266 1.986353 1.666000 89 89 89 1
-103.807999 94.652008 -0.563049 89 89 89 1
-52.414234 81.968971 -6.436056 89 89 89 1
-88.391258 6.156753 0.092020 89 89 89 1
-103.535072 -76.435280 -0.536377 89 89 89 1
-96.505371 -62.659756 -0.567314 89 89 89 1
-59.385201 -11.914601 -6.436349 89 89 89 1
-105.003708 96.345139 -0.534810 89 89 89 1
-98.516174 -15.226760 -0.558402 89 89 89 1
-65.284698 -56.680508 -0.893367 89 89 89 1
-49.433521 19.931358 -6.450404 89 89 89 1
-52.902672 3.363253 0.086920 89 89 89 1
15.802308 2.443231 0.093822 89 89 89 1
-96.903442 -1.221438 -0.518345 89 89 89 1
21.012386 3.759734 0.090349 89 89 89 1
-51.027527 65.195099 -6.436675 89 89 89 1
-93.342186 -71.428169 -0.535378 89 89 89 1
-13.738079 -80.616364 -0.033031 89 89 89 1
-77.806915 -45.020992 -0.885033 89 89 89 1
-101.148727 -86.516602 -0.544198 89 89 89 1
-60.107456 83.572258 -6.438215 89 89 89 1
-101.372253 26.266617 -0.548655 89 89 89 1
-106.459549 5.287582 0.110685 89 89 89 1
-94.715080 47.383713 -0.536204 89 89 89 1
-96.003479 -7.070928 -0.536410 89 89 89 1
-95.205666 -50.654812 -0.548935 89 89 89 1
-82.608253 -62.981049 -0.892413 89 89 89 1
-49.059917 16.170773 -6.435499 89 89 89 1
-96.648575 102.762260 -0.541889 89 89 89 1
-21.825172 5.519374 0.101340 89 89 89 1
-98.696457 100.334923 -0.556710 89 89 89 1
-54.162647 17.717653 -6.464103 89 89 89 1
-9.579283 3.885999 0.074614 89 89 89 1
-99.673820 97.329933 -0.543521 89 89 89 1
-103.059143 86.845963 -0.538149 89 89 89 1
53.927551 5.588227 0.073458 89 89 89 1
-62.324203 6.720905 0.077737 89 89 89 1
-66.924103 -62.209904 -0.890160 89 89 89 1
-49.026745 -14.481293 -6.460581 89 89 89 1
-51.439800 -27.672277 -6.430753 89 89 89 1
-103.776268 41.718136 -0.527806 89 89 89 1
-54.120243 57.868427 -6.464386 89 89 89 1
-100.683662 -9.432702 -0.548357 89 89 89 1
-102.448235 16.573393 -0.541265 89 89 89 1
-20.874491 6.694357 0.088583 89 89 89 1
-60.444016 25.802929 -6.434597 89 89 89 1
-50.919849 19.779030 -6.441663 89 89 89 1
-47.291573 -22.738852 -6.432409 89 89 89 1
-68.812172 2.497875 0.089017 89 89 89 1
-31.529402 1.980065 0.089199 89 89 89 1
-101.395088 66.251694 -0.528131 89 89 89 1
17.084017 -79.731384 -0.039646 89 89 89 1
-79.106392 -42.958958 -0.877676 89 89 89 1
-90.276054 5.920084 0.101103 89 89 89 1
-94.580933 34.458099 -0.554168 89 89 89 1
-102.418152 -70.142075 -0.543530 89 89 89 1
-46.130413 47.338177 -6.457845 89 89 89 1
-47.290672 66.421288 -6.444557 89 89 89 1
-49.896477 73.419174 -6.439673 89 89 89 1
-101.754448 -65.436340 -0.543188 89 89 89 1
-98.003151 90.060448 -0.533916 89 89 89 1
-97.946945 -28.135620 -0.560083 89 89 89 1
-102.019035 0.677127 0.085748 89 89 89 1
-59.757061 62.236546 -6.446695 89 89 89 1
-98.646400 -37.507103 -0.553136 89 89 89 1
-5.205725 3.317290 0.096492 89 89 89 1
0.880394 -77.850418 -0.041080 89 89 89 1
-71.250122 -55.925716 -0.890813 89 89 89 1
-53.760448 1.335859 0.079497 89 89 89 1
-97.764709 3.898551 -0.526470 89 89 89 1
-55.522213 55.896656 -6.425161 89 89 89 1
-89.679504 -59.362118 -0.888752 89 89 89 1
12.911343 -80.207047 -0.046950 89 89 89 1
-56.584553 83.177086 -6.440910 89 89 89 1
-102.177139 60.319084 -0.548444 89 89 89 1
-103.734360 84.893158 -0.544867 89 89 89 1
-47.954983 14.117652 -6.452128 89 89 89 1
-93.928757 38.214855 -0.546187 89 89 89 1
-11.870831 1.331901 0.086157 89 89 89 1
-93.445686 0.913972 -0.534721 89 89 89 1
-98.404106 -60.541599 -0.539564 89 89 89 1
-49.129879 48.972462 -6.453309 89 89 89 1
-99.617798 8.247005 -0.543603 89 89 89 1
-101.569839 68.047989 -0.549941 89 89 89 1
-56.886448 3.281424 -6.446546 89 89 89 1
-55.961296 -9.578713 -6.461615 89 89 89 1
-23.289967 4.972900 0.093878 89 89 89 1
-46.360172 -2.743084 -6.425340 89 89 89 1
-62.806896 6.584017 0.095619 89 89 89 1
-55.032375 86.826340 -6.430426 89 89 89 1
-96.562294 -37.228081 -0.563745 89 89 89 1
-53.250797 67.081635 -6.452848 89 89 89 1
-64.519363 3.902754 0.079724 89 89 89 1
-95.387451 64.990234 -0.543307 89 89 89 1
-101.476280 38.276978 -0.550964 89 89 89 1
-18.652523 3.159822 0.094804 89 89 89 1
96.369125 9.636446 1.660191 89 89 89 1
-15.990389 -81.631340 -0.036582 89 89 89 1
-100.021133 49.565781 -0.547975 89 89 89 1
6.566703 2.274153 0.078144 89 89 89 1
-53.832207 62.040939 -6.444813 89 89 89 1
-99.530060 -5.550941 -0.518819 89 89 89 1
-90.118095 -53.096855 -0.875436 89 89 89 1
-64.846733 -43.676418 -0.893254 89 89 89 1
-85.519081 -62.188316 -0.906036 89 89 89 1
-27.393608 0.932476 0.089774 89 89 89 1
-29.454485 6.173466 0.097292 89 89 89 1
-51.327541 63.692444 -6.443879 89 89 89 1
-97.178215 46.031265 -0.559761 89 89 89 1
36.825924 -80.240318 -0.035768 89 89 89 1
-103.723785 53.337437 -0.537432 89 89 89 1
-57.337524 19.353230 -6.450241 89 89 89 1
40.446121 1.775134 0.087387 89 89 89 1
-55.934860 37.557522 -6.447988 89 89 89 1
-104.771339 6.680555 -0.551142 89 89 89 1
-89.596428 -46.559841 -0.882289 89 89 89 1
-74.391434 -45.077236 -0.892934 89 89 89 1
-52.148624 19.065453 -6.459996 89 89 89 1
-46.134636 24.334221 -6.438711 89 89 89 1
-7.188593 3.638886 0.087346 89 89 89 1
43.781799 1.981108 0.076818 89 89 89 1
-104.822289 13.187046 -0.541311 89 89 89 1
-100.665413 38.464874 -0.538395 89 89 89 1
-45.983398 -13.767250 -6.443172 89 89 89 1
-0.816062 0.587114 0.088922 89 89 89 1
-33.892029 3.303618 0.095026 89 89 89 1
-98.543144 19.878092 -0.532256 89 89 89 1
-55.712666 44.978451 -6.460875 89 89 89 1
-97.489395 -60.983307 -0.537997 89 89 89 1
-58.987270 -17.631258 -6.448606 89 89 89 1
-98.167801 10.123715 -0.540712 89 89 89 1
-48.742912 72.849953 -6.456081 89 89 89 1
-102.546844 98.375389 -0.540035 89 89 89 1
-95.341255 -87.695679 -0.531467 89 89 89 1
-58.694740 60.731346 -6.434850 89 89 89 1
-65.307671 5.262983 0.077173 89 89 89 1
-97.940697 7.958323 -0.548762 89 89 89 1
-88.890045 -52.190758 -0.875660 89 89 89 1
-58.669762 47.009541 -6.436500 89 89 89 1
-55.533306 99.848244 -6.429955 89 89 89 1
-101.531700 -60.436184 -0.562123 89 89 89 1
-80.446869 -46.625977 -0.875393 89 89 89 1
-104.940170 -21.089981 -0.546880 89 89 89 1
-67.062073 -45.277412 -0.892025 89 89 89 1
-74.790047 -62.985104 -0.898852 89 89 89 1
-81.197723 0.638410 0.083308 89 89 89 1
-51.239117 10.690613 -6.443902 89 89 89 1
-50.540707 66.524330 -6.439735 89 89 89 1
-56.772049 62.025928 -6.447866 89 89 89 1
19.360373 -76.416481 -0.037783 89 89 89 1
-99.409119 -16.224899 -0.553451 89 89 89 1
-99.956398 3.857801 0.075139 89 89 89 1
-102.434196 13.628145 -0.551595 89 89 89 1
-103.949699 42.912609 -0.553221 89 89 89 1
-99.828598 -26.906769 -0.539357 89 89 89 1
-40.199226 5.537498 0.077785 89 89 89 1
-59.220657 1.526065 -6.442739 89 89 89 1
-97.987801 -51.557491 -0.544084 89 89 89 1
-102.992104 89.431679 -0.548756 89 89 89 1
-89.717552 1.247714 0.077531 89 89 89 1
-99.640259 -20.472086 -0.542084 89 89 89 1
35.933678 -78.817024 -0.040470 89 89 89 1
-47.951061 -28.947802 -6.463480 89 89 89 1
-95.865181 -7.117523 -0.557625 89 89 89 1
-103.741783 6.776978 -0.551523 89 89 89 1
-47.771938 47.074135 -6.436237 89 89 89 1
-57.889984 76.441666 -6.457819 89 89 89 1
-112.358086 2.121351 0.082958 89 89 89 1
-102.089859 59.709347 -0.541050 89 89 89 1
-95.396568 -30.661463 -0.528924 89 89 89 1
-66.748039 -51.994854 -0.893255 89 89 89 1
-18.127686 3.246376 0.095468 89 89 89 1
-95.928131 -9.649726 -0.537020 89 89 89 1
-76.076355 -51.121513 -0.884290 89 89 89 1
-99.233170 -9.284374 -0.544620 89 89 89 1
-105.055595 93.120567 -0.523686 89 89 89 1
-104.492180 -75.350830 -0.559416 89 89 89 1
-95.551277 69.356224 -0.553256 89 89 89 1
-100.077248 -37.478012 -0.558692 89 89 89 1
-71.990585 -40.659058 -0.887249 89 89 89 1
-96.516670 -89.104172 -0.566240 89 89 89 1
-99.817505 56.382332 -0.542225 89 89 89 1
-100.168228 -37.102219 -0.563931 89 89 89 1
-51.163635 -25.542637 -6.459311 89 89 89 1
7.803028 1.010913 0.086936 89 89 89 1
-2.580794 3.856734 0.053728 89 89 89 1
-67.755478 -56.644962 -0.891572 89 89 89 1
29.729053 6.503180 0.093803 89 89 89 1
-80.153160 3.551135 0.088369 89 89 89 1
-75.771309 -55.150814 -0.877811 89 89 89 1
-96.384033 71.700600 -0.543509 89 89 89 1
-59.418774 52.883083 -6.445096 89 89 89 1
-50.065048 31.527390 -6.431699 89 89 89 1
-67.372299 0.564010 0.078224 89 89 89 1
-59.481945 -6.900593 -6.443415 89 89 89 1
-74.615013 -62.659840 -0.876266 89 89 89 1
-54.286358 64.285805 -6.438461 89 89 89 1
-48.842083 -26.220196 -6.460896 89 89 89 1
-99.346794 48.145142 -0.550869 89 89 89 1
-98.985222 -3.257107 -0.526254 89 89 89 1
-52.769947 69.993851 -6.454679 89 89 89 1
-101.026985 66.024269 -0.541507 89 89 89 1
-52.186478 6.887893 -6.456170 89 89 89 1
14.273133 -81.063911 -0.047390 89 89 89 1
-104.745277 50.788063 -0.548192 89 89 89 1
72.073929 0.336645 0.058269 89 89 89 1
-56.499035 76.943405 -6.449888 89 89 89 1
-73.590912 -63.201080 -0.880688 89 89 89 1
-87.071411 6.242507 0.079175 89 89 89 1
-56.936119 107.432304 -6.449721 89 89 89 1
-96.981636 -51.271004 -0.530272 89 89 89 1
-49.703808 -6.239241 -6.403722 89 89 89 1
-103.086349 77.965111 -0.553615 89 89 89 1
-47.539463 96.251503 -6.441041 89 89 89 1
-99.706047 71.077164 -0.529073 89 89 89 1
-45.894047 57.039761 -6.442404 89 89 89 1
-52.504589 1.987594 0.094027 89 89 89 1
-104.076523 -74.630150 -0.554347 89 89 89 1
-7.666099 -77.210045 -0.032913 89 89 89 1
-98.222679 23.933962 -0.532439 89 89 89 1
-98.253273 53.388725 -0.543333 89 89 89 1
-97.366295 -40.440453 -0.544215 89 89 89 1
-78.429787 3.585934 0.078666 89 89 89 1
-80.389542 -61.410976 -0.889400 89 89 89 1
-59.013783 98.736099 -6.463495 89 89 89 1
-100.039330 -9.036752 -0.538080 89 89 89 1
-95.832901 -47.620548 -0.547293 89 89 89 1
-6.838057 1.251208 0.089609 89 89 89 1
-103.049904 3.394200 -0.535563 89 89 89 1
-14.748555 -81.379982 -0.033288 89 89 89 1
-58.510693 23.319876 -6.434526 89 89 89 1
-69.808372 -58.923374 -0.883379 89 89 89 1
-103.865013 -35.589813 -0.543085 89 89 89 1
42.120300 5.470161 0.082636 89 89 89 1
-49.556442 3.773429 -6.445835 89 89 89 1
62.369370 3.256465 0.075840 89 89 89 1
-99.673355 90.158501 -0.546890 89 89 89 1
-52.712692 37.312088 -6.437697 89 89 89 1
8.329429 4.377950 0.086366 89 89 89 1
-94.133598 -29.116991 -0.544220 89 89 89 1
15.944166 -76.308784 -0.035956 89 89 89 1
29.712635 6.249491 0.082825 89 89 89 1
-93.973953 68.947426 -0.544517 89 89 89 1
-104.698532 29.520678 -0.539579 89 89 89 1
-77.214661 3.593840 0.085433 89 89 89 1
-95.043976 -46.876499 -0.551771 89 89 89 1
-60.261280 -20.371647 -6.446937 89 89 89 1
-64.602661 -52.427097 -0.886096 89 89 89 1
-101.003334 -84.194176 -0.528649 89 89 89 1
-2.327258 -78.109505 -0.038657 89 89 89 1
-97.237289 -20.829201 -0.546567 89 89 89 1
-55.429295 43.889027 -6.445643 89 89 89 1
-100.435005 -28.999666 -0.552124 89 89 89 1
-103.666092 -19.683125 -0.546278 89 89 89 1
-47.351372 102.827690 -6.447070 89 89 89 1
-27.326729 6.744662 0.098342 89 89 89 1
-97.211136 -86.888733 -0.535761 89 89 89 1
-56.576801 52.934479 -6.458736 89 89 89 1
114.921349 42.991364 -2.159595 89 89 89 1
-53.268608 53.262745 -6.444038 89 89 89 1
-99.703918 83.317169 -0.557976 89 89 89 1
-99.649437 -60.187599 -0.548654 89 89 89 1
-56.059181 -21.987396 -6.442372 89 89 89 1
-98.128502 -25.351151 -0.541492 89 89 89 1
-97.483177 4.267997 0.084823 89 89 89 1
-73.423576 -55.311897 -0.906419 89 89 89 1
-59.122734 94.027321 -6.443614 89 89 89 1
-103.673225 23.420147 -0.533823 89 89 89 1
-77.462349 -45.695553 -0.905830 89 89 89 1
-97.988213 51.179962 -0.540918 89 89 89 1
-76.654488 -39.000851 -0.896576 89 89 89 1
-47.118679 98.059669 -6.458532 89 89 89 1
-100.283684 13.112077 -0.548859 89 89 89 1
-81.480064 3.008601 0.088814 89 89 89 1
-54.034199 24.658022 -6.442626 89 89 89 1
-46.542450 88.377068 -6.447885 89 89 89 1
-53.493946 30.369068 -6.440036 89 89 89 1
-77.926414 -43.058197 -0.892415 89 89 89 1
-51.303841 107.712906 -6.475107 89 89 89 1
-75.369911 -49.189697 -0.899138 89 89 89 1
-101.997581 93.241913 -0.539725 89 89 89 1
-101.837128 58.590115 -0.561602 89 89 89 1
-87.081543 4.169275 0.080933 89 89 89 1
-20.772285 3.881204 0.095642 89 89 89 1
-109.878578 1.161016 0.072411 89 89 89 1
-94.395660 55.018982 -0.522920 89 89 89 1
-95.537521 82.201210 -0.550852 89 89 89 1
-93.435852 46.183792 -0.550682 89 89 89 1
53.229832 2.069269 0.091481 89 89 89 1
-20.039665 2.798532 0.091945 89 89 89 1
-97.190094 -84.587723 -0.557166 89 89 89 1
-95.875237 -10.143164 -0.557190 89 89 89 1
-100.870735 102.224243 -0.529151 89 89 89 1
-48.365971 38.772804 -6.456464 89 89 89 1
-22.086254 4.048334 0.078359 89 89 89 1
-55.564045 38.435616 -6.441428 89 89 89 1
-95.631386 51.680233 -0.537321 89 89 89 1
-104.077019 -2.620800 -0.542186 89 89 89 1
-95.839783 -52.967506 -0.549496 89 89 89 1
-66.873825 -57.006836 -0.887101 89 89 89 1
-52.230461 59.626869 -6.443045 89 89 89 1
-53.795269 41.876930 -6.447837 89 89 89 1
-97.014709 -38.178406 -0.554449 89 89 89 1
-49.798660 11.618337 -6.458600 89 89 89 1
-5.724735 2.375502 0.095946 89 89 89 1
-102.083969 6.820716 0.086900 89 89 89 1
-94.771736 4.771748 -0.545846 89 89 89 1
-72.540680 18.570826 -3.523587 89 89 89 1
-58.829464 -13.787059 -6.439871 89 89 89 1
73.835381 2.188265 0.080848 89 89 89 1
-46.992001 95.551575 -6.445248 89 89 89 1
-69.888954 -45.682533 -0.886531 89 89 89 1
-97.356598 -46.687119 -0.534132 89 89 89 1
-52.784012 109.270264 -6.439187 89 89 89 1
-85.662048 6.627072 0.100049 89 89 89 1
-50.674706 -16.471930 -6.446186 89 89 89 1
-58.972355 5.056588 -6.453429 89 89 89 1
41.408749 3.796572 0.091208 89 89 89 1
-52.608147 -22.962463 -6.424359 89 89 89 1
-99.220779 -80.491798 -0.536522 89 89 89 1
-59.389847 63.727501 -6.454651 89 89 89 1
-86.378250 -47.422108 -0.879321 89 89 89 1
-2.488940 2.880879 0.087307 89 89 89 1
-66.814613 -41.403736 -0.884368 89 89 89 1
-51.091354 1.345380 0.081360 89 89 89 1
-97.329292 25.615816 -0.549587 89 89 89 1
81.036995 3.082540 0.086140 89 89 89 1
115.286400 42.640343 -2.157581 89 89 89 1
-93.377769 33.701096 -0.563110 89 89 89 1
-98.302383 25.217358 -0.535389 89 89 89 1
-75.884819 -54.760143 -0.878278 89 89 89 1
-47.248974 -12.575595 -6.438307 89 89 89 1
-8.926567 0.712611 0.102691 89 89 89 1
31.491425 1.032816 0.074847 89 89 89 1
-98.700066 45.349785 -0.540252 89 89 89 1
-56.037136 61.069214 -6.443035 89 89 89 1
-49.485172 -18.532434 -6.455054 89 89 89 1
-82.014038 -55.158249 -0.894078 89 89 89 1
-71.067085 6.430557 0.082210 89 89 89 1
35.980305 -77.732346 -0.043704 89 89 89 1
-99.450722 -37.009838 -0.535023 89 89 89 1
-102.028831 9.630617 -0.552614 89 89 89 1
-49.479771 97.757439 -6.448406 89 89 89 1
-13.604204 -78.965561 -0.038606 89 89 89 1
-101.677376 -4.470536 -0.536991 89 89 89 1
-101.971916 38.584641 -0.535566 89 89 89 1
-66.185867 -51.066204 -0.896952 89 89 89 1
-71.272583 -43.688148 -0.888086 89 89 89 1
-103.354576 -70.198708 -0.547235 89 89 89 1
-94.246002 -90.232468 -0.543579 89 89 89 1
-98.707825 -65.848038 -0.566757 89 89 89 1
95.704285 5.494181 1.664120 89 89 89 1
-99.105797 -69.071671 -0.549888 89 89 89 1
-56.311508 -17.061321 -6.452791 89 89 89 1
-51.039207 -4.113451 -6.452710 89 89 89 1
-48.179558 0.187423 -6.451636 89 89 89 1
-34.009693 2.991254 0.104558 89 89 89 1
-51.260193 82.035675 -6.441878 89 89 89 1
115.223183 40.407646 -2.156296 89 89 89 1
-56.761341 64.734085 -6.446409 89 89 89 1
-55.648746 99.366776 -6.466632 89 89 89 1
-69.886734 2.029639 0.085103 89 89 89 1
-74.411095 -40.851051 -0.875880 89 89 89 1
-94.036530 76.457726 -0.538024 89 89 89 1
-78.613274 -54.977776 -0.899543 89 89 89 1
-90.065224 -43.505627 -0.891586 89 89 89 1
-103.518417 55.265408 -0.540354 89 89 89 1
-46.826447 16.334068 -6.451589 89 89 89 1
-48.078739 63.969574 -6.452786 89 89 89 1
-53.956936 -4.118721 -6.453428 89 89 89 1
-58.719696 55.322475 -6.440097 89 89 89 1
-100.681885 73.912407 -0.548368 89 89 89 1
-76.023849 -46.498116 -0.894166 89 89 89 1
30.302647 -76.290726 -0.036859 89 89 89 1
-13.997449 0.730588 0.093189 89 89 89 1
-101.249123 88.640388 -0.545917 89 89 89 1
83.117455 3.602547 0.081896 89 89 89 1
-60.017365 3.055485 -6.460547 89 89 89 1
95.377617 40.520145 -2.167285 89 89 89 1
75.907936 2.640177 0.077901 89 89 89 1
-97.598824 96.127480 -0.543785 89 89 89 1
-56.291874 6.630346 0.073431 89 89 89 1
-96.822876 14.377256 -0.523289 89 89 89 1
-101.685287 94.132866 -0.551020 89 89 89 1
77.513832 4.729386 0.079492 89 89 89 1
-102.431450 9.025920 -0.552744 89 89 89 1
-81.702545 -54.804573 -0.893813 89 89 89 1
-60.518993 33.217220 -6.449573 89 89 89 1
-52.320820 99.454704 -6.441488 89 89 89 1
-101.373405 100.536552 -0.550899 89 89 89 1
-98.722176 -69.008347 -0.557886 89 89 89 1
-41.980179 4.842122 0.070430 89 89 89 1
-58.011971 72.184715 -6.468199 89 89 89 1
18.466135 5.847259 0.087527 89 89 89 1
-97.834084 -90.795532 -0.544822 89 89 89 1
-95.593483 47.523895 -0.542236 89 89 89 1
-93.777100 -90.828133 -0.544859 89 89 89 1
-59.203377 104.691574 -6.459764 89 89 89 1
-93.330925 4.247260 0.079512 89 89 89 1
17.952015 5.832669 0.085391 89 89 89 1
-99.328186 71.951149 -0.532030 89 89 89 1
-84.730476 -39.458679 -0.894168 89 89 89 1
-70.827843 6.421562 0.076809 89 89 89 1
-76.320145 2.248687 0.089272 89 89 89 1
-63.503044 4.747617 0.097016 89 89 89 1
-98.621605 60.633369 -0.559668 89 89 89 1
-45.837738 66.605080 -6.450493 89 89 89 1
-48.243118 105.753143 -6.455060 89 89 89 1
-88.529579 5.327931 0.068382 89 89 89 1
-46.522030 76.258232 -6.435619 89 89 89 1
-71.651741 -54.274403 -0.890098 89 89 89 1
-59.313496 104.126678 -6.465501 89 89 89 1
-83.213608 4.769451 0.095971 89 89 89 1
62.160671 2.861887 0.088130 89 89 89 1
27.593470 -79.120285 -0.031018 89 89 89 1
-104.536263 95.527550 -0.564678 89 89 89 1
-85.085258 18.394514 -3.513305 89 89 89 1
56.900753 6.678614 0.086197 89 89 89 1
-89.728325 -56.666355 -0.890481 89 89 89 1
29.099199 -78.082672 -0.044621 89 89 89 1
-99.387337 -43.742935 -0.552159 89 89 89 1
-102.707825 85.201935 -0.553062 89 89 89 1
-59.253754 37.497650 -6.459552 89 89 89 1
-87.832542 -59.501633 -0.897158 89 89 89 1
-51.254330 -2.176091 -6.430340 89 89 89 1
-103.368721 33.106426 -0.578226 89 89 89 1
-99.185570 6.933278 -0.537338 89 89 89 1
-97.744392 108.160065 -0.555452 89 89 89 1
-6.837657 -77.358452 -0.039018 89 89 89 1
-86.218971 2.324253 0.092108 89 89 89 1
-75.883186 -61.740105 -0.874723 89 89 89 1
-82.107750 -61.723076 -0.902320 89 89 89 1
-33.782776 2.925888 0.086326 89 89 89 1
-80.222458 -61.774994 -0.890565 89 89 89 1
-45.763855 -13.109368 -6.458711 89 89 89 1
96.279312 14.131805 1.659755 89 89 89 1
-103.422340 102.840706 -0.527826 89 89 89 1
-51.794476 9.631113 -6.432927 89 89 89 1
-105.106377 -92.459488 -0.544457 89 89 89 1
-80.290047 -48.711075 -0.890313 89 89 89 1
-49.740128 74.981606 -6.457858 89 89 89 1
-94.283951 -92.561256 -0.546814 89 89 89 1
-93.355614 -9.059924 -0.546002 89 89 89 1
-109.147636 2.493794 0.091713 89 89 89 1
-52.755753 93.599182 -6.453135 89 89 89 1
-94.007462 48.960907 -0.526900 89 89 89 1
-86.169426 -58.964031 -0.886540 89 89 89 1
-68.128883 3.133511 0.088500 89 89 89 1
-55.367512 5.810494 -6.449265 89 89 89 1
-76.794632 -40.606941 -0.879081 89 89 89 1
-56.872341 42.390907 -6.450197 89 89 89 1
-64.291069 3.040640 0.084196 89 89 89 1
-49.718864 82.977608 -6.443616 89 89 89 1
25.638844 3.834276 0.074552 89 89 89 1
40.071224 6.419788 0.091784 89 89 89 1
1.904571 -78.431541 -0.047887 89 89 89 1
-103.368042 94.811783 -0.546338 89 89 89 1
47.613926 2.581075 0.112689 89 89 89 1
46.124546 3.607335 0.096446 89 89 89 1
-98.332619 -3.108688 -0.535520 89 89 89 1
-3.829826 4.165315 0.098497 89 89 89 1
108.974831 40.599751 -2.160489 89 89 89 1
22.048323 2.911971 0.090457 89 89 89 1
-15.881646 6.356949 0.104201 89 89 89 1
-7.146070 1.348623 0.097650 89 89 89 1
-69.994461 -44.683651 -0.888432 89 89 89 1
-55.453987 85.777733 -6.446271 89 89 89 1
-49.891899 68.284447 -6.439028 89 89 89 1
-33.189735 6.474667 0.081423 89 89 89 1
-99.781273 -19.133186 -0.540585 89 89 89 1
-53.080460 99.048294 -6.450122 89 89 89 1
-50.898357 52.030807 -6.427215 89 89 89 1
-99.658798 107.645287 -0.551902 89 89 89 1
-77.100662 -42.191143 -0.905208 89 89 89 1
-105.141266 36.413948 -0.537746 89 89 89 1
-72.698997 19.577866 -3.514355 89 89 89 1
-99.186157 -89.541245 -0.542215 89 89 89 1
-58.599472 17.883551 -6.441726 89 89 89 1
-99.145638 -75.518532 -0.532966 89 89 89 1
21.908396 -76.936707 -0.039058 89 89 89 1
-59.475899 85.581627 -6.455560 89 89 89 1
-67.287331 -60.687653 -0.886216 89 89 89 1
-102.580002 -2.275393 -0.532984 89 89 89 1
-47.539043 56.049850 -6.439250 89 89 89 1
-51.941174 27.000246 -6.445732 89 89 89 1
-46.900673 67.163902 -6.438212 89 89 89 1
-101.002747 -19.365387 -0.545239 89 89 89 1
-52.859257 -17.012867 -6.431801 89 89 89 1
-99.660698 89.196999 -0.535768 89 89 89 1
-51.797359 19.446293 -6.440115 89 89 89 1
38.124889 -78.799843 -0.028675 89 89 89 1
47.196064 5.702158 0.083344 89 89 89 1
-55.682117 45.280689 -6.447827 89 89 89 1
-30.990227 6.817686 0.076710 89 89 89 1
-74.930229 -46.975986 -0.882886 89 89 89 1
108.278976 41.776619 -2.155142 89 89 89 1
-98.041702 86.670563 -0.542620 89 89 89 1
-52.071205 0.532694 -6.439607 89 89 89 1
-59.892345 41.589550 -6.453791 89 89 89 1
-96.551849 -10.939366 -0.528873 89 89 89 1
-94.613747 69.750648 -0.554691 89 89 89 1
-53.371845 90.737900 -6.454327 89 89 89 1
-48.798061 97.141754 -6.436728 89 89 89 1
30.129358 5.929332 0.088420 89 89 89 1
-98.667671 101.887154 -0.534579 89 89 89 1
-60.387714 -0.313742 -6.443714 89 89 89 1
-102.958359 32.750031 -0.548176 89 89 89 1
-54.380634 93.219566 -6.439519 89 89 89 1
-62.953613 3.118610 0.090547 89 89 89 1
-102.664284 40.597889 -0.547216 89 89 89 1
-100.624939 -37.839287 -0.530889 89 89 89 1
59.324821 6.653239 0.085570 89 89 89 1
-104.893402 53.259785 -0.544511 89 89 89 1
-95.984093 -33.619717 -0.529546 89 89 89 1
-0.955749 -76.777428 -0.031812 89 89 89 1
-77.726631 -44.231026 -0.874374 89 89 89 1
-46.390556 3.811049 0.091776 89 89 89 1
-96.454132 -31.294750 -0.538418 89 89 89 1
-53.682255 1.958890 -6.426559 89 89 89 1
-97.771248 93.021263 -0.535375 89 89 89 1
-84.274345 -39.789848 -0.888259 89 89 89 1
-95.100586 16.087801 -0.544382 89 89 89 1
64.562759 6.261178 0.091688 89 89 89 1
-48.446667 0.115524 -6.449297 89 89 89 1
-68.192345 -43.962433 -0.884282 89 89 89 1
-65.873932 -62.543232 -0.886809 89 89 89 1
-66.898956 -63.043755 -0.893409 89 89 89 1
-97.217842 -0.668346 -0.529900 89 89 89 1
-103.490295 7.081784 -0.554943 89 89 89 1
-88.881050 -57.504585 -0.874353 89 89 89 1
-48.165531 46.898151 -6.428178 89 89 89 1
-51.145573 -5.943959 -6.459868 89 89 89 1
-94.816116 -27.819536 -0.540811 89 89 89 1
-47.755016 26.889156 -6.439702 89 89 89 1
-96.499619 -3.319286 -0.559590 89 89 89 1
46.650547 2.513301 0.077706 89 89 89 1
68.272186 6.047348 0.082141 89 89 89 1
-51.248688 49.021881 -6.445084 89 89 89 1
-51.202770 63.646290 -6.449643 89 89 89 1
-56.952442 -23.398952 -6.445027 89 89 89 1
-95.458229 109.194443 -0.558530 89 89 89 1
-74.635429 -53.339237 -0.898571 89 89 89 1
27.074568 4.419829 0.085276 89 89 89 1
-104.672142 -40.223019 -0.520735 89 89 89 1
-102.523399 -64.247513 -0.550908 89 89 89 1
-68.879677 -43.732964 -0.894675 89 89 89 1
-100.081528 -82.757431 -0.538326 89 89 89 1
-57.593582 88.030922 -6.434954 89 89 89 1
26.761303 5.212797 0.089192 89 89 89 1
-103.852135 39.796482 -0.528177 89 89 89 1
-104.311142 -30.198549 -0.551838 89 89 89 1
-58.478897 7.733923 -6.452176 89 89 89 1
-54.148865 32.378242 -6.446311 89 89 89 1
-44.234226 4.614960 0.091737 89 89 89 1
-96.010826 71.217010 -0.560387 89 89 89 1
-54.736183 -24.796810 -6.441690 89 89 89 1
106.779808 40.495518 -2.143354 89 89 89 1
-57.048546 -12.861810 -6.443039 89 89 89 1
-46.585426 29.537121 -6.451207 89 89 89 1
-57.175159 74.840248 -6.434418 89 89 89 1
-104.778465 28.914515 -0.555740 89 89 89 1
-84.802605 -61.714622 -0.899971 89 89 89 1
-63.085857 2.932294 0.080906 89 89 89 1
-100.457870 -88.223000 -0.539845 89 89 89 1
-77.736504 2.486236 0.083571 89 89 89 1
-50.332439 24.590862 -6.443182 89 89 89 1
8.876895 -79.319870 -0.040617 89 89 89 1
-104.836754 87.053116 -0.534299 89 89 89 1
-70.838760 -62.895008 -0.896717 89 89 89 1
-45.875950 70.407974 -6.462548 89 89 89 1
-100.183846 -14.831653 -0.532171 89 89 89 1
-83.926491 -62.847477 -0.886305 89 89 89 1
-47.965050 25.010553 -6.443814 89 89 89 1
107.853676 39.706940 -2.171591 89 89 89 1
-64.019806 -51.324318 -0.896590 89 89 89 1
-50.135025 102.630478 -6.452747 89 89 89 1
33.429459 1.378331 0.083230 89 89 89 1
-95.656143 6.801829 -0.549843 89 89 89 1
39.054359 3.250478 0.089460 89 89 89 1
-52.882462 15.929881 -6.433112 89 89 89 1
-93.493492 71.237816 -0.545660 89 89 89 1
-69.386246 -48.549942 -0.895815 89 89 89 1
-78.675911 -51.166588 -0.902914 89 89 89 1
-95.343468 102.696854 -0.550594 89 89 89 1
-46.552528 24.221653 -6.453026 89 89 89 1
-113.916359 1.943042 0.086575 89 89 89 1
-50.549892 -4.714114 -6.441678 89 89 89 1
58.647633 2.534585 0.085642 89 89 89 1
-94.944427 -12.235407 -0.549205 89 89 89 1
-56.989952 64.975021 -6.437253 89 89 89 1
-83.934212 0.281373 0.079750 89 89 89 1
-46.713947 99.739983 -6.453353 89 89 89 1
-48.735455 26.787140 -6.435086 89 89 89 1
-54.127052 21.025023 -6.443268 89 89 89 1
28.352093 3.006145 0.088241 89 89 89 1
-107.753876 6.574863 0.087504 89 89 89 1
-46.134319 30.274773 -6.439551 89 89 89 1
-35.973698 0.250733 0.078711 89 89 89 1
-96.821541 -46.931847 -0.533881 89 89 89 1
-52.266796 94.105659 -6.430705 89 89 89 1
-59.926006 20.769087 -6.449779 89 89 89 1
-59.572701 17.487347 -6.452048 89 89 89 1
-46.385422 12.445726 -6.459044 89 89 89 1
76.847557 6.821168 0.093342 89 89 89 1
-100.434669 -80.592194 -0.538470 89 89 89 1
-58.338093 5.696929 0.085390 89 89 89 1
-50.747475 52.913383 -6.437823 89 89 89 1
-3.685057 2.024910 0.100178 89 89 89 1
-101.103104 -6.404829 -0.539913 89 89 89 1
-57.359673 32.601704 -6.449530 89 89 89 1
-14.253204 -79.915428 -0.040279 89 89 89 1
-72.263817 4.236301 0.096671 89 89 89 1
-57.428577 98.400810 -6.455140 89 89 89 1
-97.522858 -1.517365 -0.545496 89 89 89 1
-101.851433 101.289497 -0.522114 89 89 89 1
-53.090862 24.012749 -6.478574 89 89 89 1
-93.509506 -54.384384 -0.543153 89 89 89 1
26.328989 2.480984 0.100066 89 89 89 1
-49.441071 92.983284 -6.444304 89 89 89 1
-103.806229 -37.742207 -0.552396 89 89 89 1
-52.026443 89.794655 -6.464278 89 89 89 1
-70.806053 -51.183178 -0.881882 89 89 89 1
-101.389679 -51.728600 -0.543634 89 89 89 1
4.109068 3.303707 0.086835 89 89 89 1
-104.516037 66.583153 -0.534000 89 89 89 1
-50.770885 32.842331 -6.443323 89 89 89 1
-95.879303 -87.337036 -0.553201 89 89 89 1
-51.918373 12.161668 -6.442243 89 89 89 1
-83.429832 -49.842964 -0.893105 89 89 89 1
-59.375690 -9.841424 -6.431381 89 89 89 1
-48.212742 15.326171 -6.443215 89 89 89 1
-52.612297 -7.782156 -6.454786 89 89 89 1
-98.310478 -5.317996 -0.539416 89 89 89 1
-50.252274 -22.367020 -6.453498 89 89 89 1
-88.452980 -50.445312 -0.894693 89 89 89 1
-48.095482 92.581093 -6.446347 89 89 89 1
-49.803848 89.486771 -6.456798 89 89 89 1
-46.496807 2.975809 -6.440458 89 89 89 1
-98.126251 8.884807 -0.541368 89 89 89 1
-70.875740 -42.212666 -0.880241 89 89 89 1
-54.601196 21.109510 -6.454109 89 89 89 1
-99.138939 9.250444 -0.553901 89 89 89 1
-87.078094 -53.732639 -0.883486 89 89 89 1
-54.603058 12.713396 -6.440603 89 89 89 1
-49.165016 106.940331 -6.424805 89 89 89 1
-90.307358 -43.828789 -0.889274 89 89 89 1
93.742081 39.870350 -2.170140 89 89 89 1
-47.584797 73.031204 -6.444567 89 89 89 1
-52.955120 91.726196 -6.436514 89 89 89 1
-14.869861 -81.685722 -0.039489 89 89 89 1
-97.753372 85.632759 -0.547797 89 89 89 1
-99.317558 98.657890 -0.540328 89 89 89 1
-57.516140 19.192442 -6.445166 89 89 89 1
-53.837902 5.092385 0.092738 89 89 89 1
-43.355804 4.306559 0.084154 89 89 89 1
-52.824348 91.941284 -6.438807 89 89 89 1
-17.102661 2.929759 0.098172 89 89 89 1
45.148140 1.928448 0.099758 89 89 89 1
-103.389923 15.768908 -0.562900 89 89 89 1
-15.496942 4.305332 0.110537 89 89 89 1
-51.895050 0.092814 0.106618 89 89 89 1
19.071384 6.755622 0.090223 89 89 89 1
-99.600235 -91.188797 -0.545655 89 89 89 1
-102.996017 104.573799 -0.548763 89 89 89 1
48.740223 2.562467 0.064166 89 89 89 1
-94.120705 -94.257553 -0.560080 89 89 89 1
28.924528 -77.683273 -0.036992 89 89 89 1
-99.393753 64.908981 -0.549455 89 89 89 1
