ply
format ascii 1.0
element vertex 1116
property float x
property float y
property float z
property uchar red
property uchar green
property uchar blue
property int label
end_header
17.260771 47.611866 0.851480 89 191 76 2
-110.721695 63.813980 -1.661035 89 191 76 2
104.963577 -7.368956 1.318736 89 191 76 2
14.232067 11.943116 4.168652 89 191 76 2
35.221298 77.333206 0.923447 89 191 76 2
-88.836533 76.830437 -1.903722 89 191 76 2
80.177238 81.314827 -1.301987 89 191 76 2
35.139732 76.888374 0.418688 89 191 76 2
35.706203 77.330482 0.431938 89 191 76 2
-5.575366 -19.734375 1.130089 89 191 76 2
53.377140 -102.404739 3.948613 89 191 76 2
20.488302 86.243370 0.271506 89 191 76 2
-51.786060 -90.291794 -2.014358 89 191 76 2
-117.299782 -29.928690 3.280205 89 191 76 2
76.666496 82.339569 -0.432812 89 191 76 2
55.841606 105.495712 1.094512 89 191 76 2
32.665207 -0.957219 6.237751 89 191 76 2
-30.924885 14.654848 -2.527507 89 191 76 2
-89.926941 76.739540 -2.058752 89 191 76 2
24.826738 78.383278 0.623381 89 191 76 2
78.265259 64.628990 -0.811623 89 191 76 2
70.986488 -12.391501 5.289963 89 191 76 2
-29.050148 -11.995981 -0.891374 89 191 76 2
-86.030510 -73.373161 0.485509 89 191 76 2
38.529896 -107.108971 4.739410 89 191 76 2
41.854137 -63.344284 3.556091 89 191 76 2
85.615326 -55.007317 2.527385 89 191 76 2
51.580585 -70.717216 3.523805 89 191 76 2
-16.196617 -89.576462 -2.005300 89 191 76 2
-11.285230 -15.084198 0.753757 89 191 76 2
88.434715 -20.901039 2.989585 89 191 76 2
-89.099655 75.909622 -2.109653 89 191 76 2
-23.440708 20.804461 -2.306718 89 191 76 2
76.530052 82.861801 -0.196204 89 191 76 2
-26.643480 -36.832161 -2.257542 89 191 76 2
-30.057892 -10.627859 -0.995807 89 191 76 2
80.555229 26.883774 2.035092 89 191 76 2
76.773285 83.285995 -0.569084 89 191 76 2
-18.686357 -36.377155 -1.684137 89 191 76 2
25.280107 78.564804 0.313199 89 191 76 2
-60.856651 -78.469757 -1.847551 89 191 76 2
-20.836496 57.725159 -4.145192 89 191 76 2
-50.839222 -30.571117 -1.854656 89 191 76 2
-27.139545 -11.689919 -1.113370 89 191 76 2
120.356339 41.640659 -2.965005 89 191 76 2
-61.193291 -78.017006 -1.791517 89 191 76 2
35.255009 77.048927 0.564024 89 191 76 2
3.140939 17.772657 2.466455 89 191 76 2
73.063148 -27.520134 5.432319 89 191 76 2
-50.589275 -78.029839 -3.005103 89 191 76 2
-69.749794 91.110527 -1.285086 89 191 76 2
69.444374 -12.609628 5.385077 89 191 76 2
-60.944084 -78.567802 -1.822257 89 191 76 2
38.289673 -106.859619 4.030077 89 191 76 2
-51.584766 -29.368143 -1.826605 89 191 76 2
21.763336 59.576965 0.757140 89 191 76 2
-26.920889 -35.842499 -2.220371 89 191 76 2
-73.328552 -65.985413 -0.943591 89 191 76 2
17.861080 48.139183 0.881203 89 191 76 2
86.249985 -55.416538 3.077038 89 191 76 2
-27.176910 -36.657688 -2.310819 89 191 76 2
114.861458 -110.256981 0.340801 89 191 76 2
-32.088436 13.711883 -2.578916 89 191 76 2
11.138761 74.836075 -0.226224 89 191 76 2
-21.568865 -102.252380 -1.047252 89 191 76 2
51.864628 -69.592972 3.540498 89 191 76 2
-66.306969 -72.015732 -2.064516 89 191 76 2
114.383232 -38.103748 -0.339830 89 191 76 2
-18.782198 -89.448730 -2.085107 89 191 76 2
73.267342 -28.146614 5.350379 89 191 76 2
-29.293839 69.511681 -4.356819 89 191 76 2
-23.561674 -92.826042 -1.979354 89 191 76 2
35.725388 76.919205 0.389216 89 191 76 2
116.194710 -110.063248 0.230371 89 191 76 2
80.733093 27.345907 2.042546 89 191 76 2
-27.664431 61.299992 -4.803010 89 191 76 2
50.714420 51.677395 1.890516 89 191 76 2
-60.908661 -58.005287 -2.298887 89 191 76 2
38.385262 -107.856949 4.272547 89 191 76 2
-64.438385 -68.412056 -1.808688 89 191 76 2
13.144552 11.627919 4.141053 89 191 76 2
-9.597985 -14.329502 1.240687 89 191 76 2
-65.886635 -72.917778 -2.082125 89 191 76 2
-60.949032 -78.399574 -1.807027 89 191 76 2
73.027237 -27.606447 5.206298 89 191 76 2
-65.629364 37.624500 -6.352087 89 191 76 2
-91.114616 -97.434090 1.321808 89 191 76 2
-72.736038 -65.710609 -0.692669 89 191 76 2
115.281479 92.327156 -1.921666 89 191 76 2
91.015495 -75.486130 1.357978 89 191 76 2
-68.137550 21.941038 -5.069131 89 191 76 2
-0.793172 69.696884 -1.888367 89 191 76 2
80.233452 27.494013 2.221295 89 191 76 2
-32.792679 14.638394 -2.663185 89 191 76 2
-87.472992 -109.742699 1.016663 89 191 76 2
-39.369465 103.432388 -0.694642 89 191 76 2
105.447937 -7.429363 1.451596 89 191 76 2
22.425224 76.183922 -0.222710 89 191 76 2
76.896088 83.007256 -0.370761 89 191 76 2
35.476521 77.080284 0.580340 89 191 76 2
80.577301 26.864254 2.068183 89 191 76 2
-91.295784 -97.503258 1.054056 89 191 76 2
34.649410 77.130539 0.376935 89 191 76 2
-68.518425 91.209892 -1.137700 89 191 76 2
-51.422386 -31.722397 -1.920220 89 191 76 2
-18.910217 -89.287567 -2.112976 89 191 76 2
18.334574 48.010887 1.258801 89 191 76 2
7.508661 80.214050 -0.809902 89 191 76 2
-30.039738 69.152924 -4.543935 89 191 76 2
-66.804688 37.743801 -6.408962 89 191 76 2
-20.537771 -33.962238 -1.598997 89 191 76 2
76.627182 82.691170 -0.103248 89 191 76 2
-99.039932 -107.817795 1.386494 89 191 76 2
71.070465 -14.594655 5.257110 89 191 76 2
34.690109 77.197220 0.380488 89 191 76 2
80.274559 26.928127 2.195827 89 191 76 2
114.542252 -109.737602 0.328584 89 191 76 2
-29.446049 -10.010531 -0.910620 89 191 76 2
-51.500694 -30.066856 -1.828859 89 191 76 2
43.326996 91.398209 0.636343 89 191 76 2
-99.496445 -108.660568 1.493955 89 191 76 2
-99.310036 -108.391327 1.431932 89 191 76 2
-65.806480 -100.280983 -0.769516 89 191 76 2
-66.255699 -100.723755 0.248115 89 191 76 2
28.091888 -12.426999 6.126192 89 191 76 2
-41.448822 79.600204 -3.879377 89 191 76 2
35.057030 77.191711 0.527447 89 191 76 2
35.051636 77.013588 0.417606 89 191 76 2
70.216980 62.434582 0.113885 89 191 76 2
90.861107 -107.650276 2.048370 89 191 76 2
80.223671 27.200783 2.116113 89 191 76 2
-93.724396 -71.230362 0.582600 89 191 76 2
-66.468788 -100.268265 -0.713471 89 191 76 2
14.383931 42.950245 1.117138 89 191 76 2
115.967438 90.983200 -2.086125 89 191 76 2
73.268349 -28.008350 5.459778 89 191 76 2
-32.514973 -34.163818 -2.238316 89 191 76 2
107.067741 50.763142 -2.489093 89 191 76 2
-61.401176 -58.226032 -2.534700 89 191 76 2
-20.366722 -35.107323 -1.634539 89 191 76 2
-32.301250 -35.577316 -2.469483 89 191 76 2
76.750610 83.309761 -0.614945 89 191 76 2
-66.235130 -100.665413 -0.108312 89 191 76 2
-64.265335 -68.148109 -2.021610 89 191 76 2
-30.019844 -10.217281 -0.957623 89 191 76 2
76.519302 82.509781 -0.456216 89 191 76 2
-24.646236 -64.207672 -3.447324 89 191 76 2
-26.961071 -11.645300 -0.894297 89 191 76 2
-85.364471 -73.413055 0.174918 89 191 76 2
-91.677269 -70.869865 0.312432 89 191 76 2
90.503105 -107.610329 1.914150 89 191 76 2
116.178146 91.977135 -2.043597 89 191 76 2
-110.662216 64.012817 -1.353756 89 191 76 2
-25.652632 -36.761913 -2.219816 89 191 76 2
8.433290 -82.961044 -0.127938 89 191 76 2
-115.076424 52.520607 -2.006814 89 191 76 2
80.306320 82.330688 -1.328075 89 191 76 2
-50.544128 -30.050499 -1.894909 89 191 76 2
35.248035 76.978928 0.843227 89 191 76 2
109.170334 -92.911003 0.101234 89 191 76 2
-26.443705 -11.963813 -1.108677 89 191 76 2
-109.489082 65.130753 -1.746438 89 191 76 2
34.923168 77.323936 0.671640 89 191 76 2
-60.256714 -78.136681 -1.880664 89 191 76 2
-10.737939 -13.647280 0.939971 89 191 76 2
-98.192688 -110.055016 1.457926 89 191 76 2
-65.282501 -72.803757 -1.818456 89 191 76 2
-60.908581 -77.713058 -1.794925 89 191 76 2
-43.129944 104.701836 -0.602960 89 191 76 2
-25.659771 8.409695 -0.901983 89 191 76 2
72.458412 -28.888939 4.941326 89 191 76 2
39.620071 -107.351257 4.236524 89 191 76 2
-31.885473 14.947560 -2.244874 89 191 76 2
-60.766438 -77.702034 -1.907469 89 191 76 2
-27.724279 61.474918 -4.694940 89 191 76 2
101.536346 -3.102138 1.982473 89 191 76 2
41.624493 -64.231255 3.724864 89 191 76 2
-51.590336 -30.506880 -1.800530 89 191 76 2
-31.450689 -35.818604 -2.311923 89 191 76 2
40.540283 -106.405670 4.196332 89 191 76 2
-26.771505 -37.082684 -2.304811 89 191 76 2
-27.650009 -11.339628 -1.185239 89 191 76 2
78.036476 63.658504 -0.891658 89 191 76 2
115.043953 91.258469 -2.117881 89 191 76 2
-72.956917 -65.593521 -0.757729 89 191 76 2
12.699324 41.340240 1.042537 89 191 76 2
-10.994740 104.888161 -0.106871 89 191 76 2
-18.487600 -35.900055 -1.597944 89 191 76 2
-112.508965 -21.233299 2.426266 89 191 76 2
-20.514492 -34.025497 -1.621886 89 191 76 2
109.460045 -92.980652 0.194909 89 191 76 2
-11.430452 105.150322 -0.078371 89 191 76 2
-64.058395 -68.411377 -2.023139 89 191 76 2
114.579521 -38.709911 -0.395652 89 191 76 2
35.134048 77.753822 0.370740 89 191 76 2
-15.835847 -88.427917 -2.023627 89 191 76 2
3.288371 -87.757980 -0.340274 89 191 76 2
-27.116945 -11.482023 -0.902497 89 191 76 2
120.557037 42.311855 -3.361480 89 191 76 2
51.298443 51.383850 1.867723 89 191 76 2
35.387566 76.713470 0.369369 89 191 76 2
-66.458748 37.925438 -6.305545 89 191 76 2
-51.077744 -30.060575 -1.843174 89 191 76 2
24.413567 78.739540 0.315855 89 191 76 2
44.515774 96.979942 1.000854 89 191 76 2
30.989595 -2.433993 6.226266 89 191 76 2
-110.714424 64.982445 -1.375593 89 191 76 2
-2.391379 97.591728 -0.368335 89 191 76 2
17.915115 -17.534456 4.919604 89 191 76 2
-23.390427 -65.143723 -3.365677 89 191 76 2
-117.281967 -30.845564 3.104201 89 191 76 2
76.755791 82.787880 -0.114790 89 191 76 2
90.861717 -106.660667 1.971133 89 191 76 2
35.305180 77.298866 0.846309 89 191 76 2
-42.076229 105.450119 -0.543915 89 191 76 2
-24.093567 -92.748306 -2.038937 89 191 76 2
80.144798 27.346878 2.097352 89 191 76 2
69.785500 -13.689996 5.447690 89 191 76 2
-51.975788 -29.989452 -1.817266 89 191 76 2
-14.098166 -91.645638 -1.584777 89 191 76 2
-20.607553 -34.790417 -1.713091 89 191 76 2
-28.366823 -10.714531 -0.826438 89 191 76 2
-115.666084 51.890438 -1.673817 89 191 76 2
119.560944 95.929207 -1.810221 89 191 76 2
119.137520 74.677795 -1.962978 89 191 76 2
-26.633913 -11.333719 -0.976125 89 191 76 2
-66.123245 -72.817856 -1.654058 89 191 76 2
-50.644363 -29.764658 -1.872040 89 191 76 2
-23.034023 21.456444 -2.353640 89 191 76 2
52.475773 -102.156219 3.763080 89 191 76 2
17.027214 48.279621 1.060569 89 191 76 2
115.331650 -109.566277 0.345294 89 191 76 2
35.554577 77.294151 0.735807 89 191 76 2
-115.316788 52.320053 -1.995185 89 191 76 2
71.879700 -46.469418 4.195755 89 191 76 2
-21.176502 57.206444 -4.121376 89 191 76 2
100.711990 -3.173805 1.705582 89 191 76 2
-86.031784 -73.458992 0.330807 89 191 76 2
-10.266526 -14.989658 0.850957 89 191 76 2
49.429562 -82.638245 3.808341 89 191 76 2
72.848564 -27.767801 5.482111 89 191 76 2
119.744644 95.560608 -1.871330 89 191 76 2
70.983833 -14.022742 5.257018 89 191 76 2
2.367841 -87.710274 -0.503443 89 191 76 2
-68.233803 91.083420 -1.462666 89 191 76 2
14.371019 43.161995 1.102294 89 191 76 2
-43.321850 105.865662 -0.493043 89 191 76 2
-32.589600 -35.158188 -2.396047 89 191 76 2
45.721474 95.421852 0.891236 89 191 76 2
-15.033788 -91.554237 -1.640698 89 191 76 2
69.754616 62.946087 0.005088 89 191 76 2
105.423401 -8.147339 1.442119 89 191 76 2
115.124413 -109.642464 0.421959 89 191 76 2
-92.808769 -71.691971 0.536018 89 191 76 2
50.820728 51.268604 1.954161 89 191 76 2
-51.284245 -29.991594 -1.838174 89 191 76 2
35.555714 77.332458 0.617492 89 191 76 2
-29.384214 69.798111 -4.299159 89 191 76 2
115.037537 90.858139 -2.173762 89 191 76 2
-87.095856 -63.866482 0.045180 89 191 76 2
-22.385077 -104.362991 -0.876211 89 191 76 2
-26.000505 -36.737232 -2.239161 89 191 76 2
24.560659 78.379929 0.430120 89 191 76 2
114.315247 -109.940788 0.307511 89 191 76 2
-22.600471 -102.431633 -1.071741 89 191 76 2
85.663925 -55.460602 2.576311 89 191 76 2
84.985474 -55.198059 2.561011 89 191 76 2
-64.678490 -68.862846 -2.010267 89 191 76 2
-53.019230 -30.201952 -1.806460 89 191 76 2
76.739784 82.193878 -0.612630 89 191 76 2
100.004814 19.652290 1.079190 89 191 76 2
119.554741 95.613510 -1.838380 89 191 76 2
73.905800 -28.352667 4.984409 89 191 76 2
-9.634008 -15.765739 1.109650 89 191 76 2
-27.766399 61.728310 -4.747785 89 191 76 2
-52.126122 -29.836088 -1.817447 89 191 76 2
24.838465 78.190224 0.412000 89 191 76 2
-50.499634 -30.418877 -1.894108 89 191 76 2
-60.953835 -77.636223 -1.890462 89 191 76 2
20.566753 85.666313 0.248081 89 191 76 2
-38.369701 101.948975 -0.831606 89 191 76 2
1.938723 107.015602 0.739167 89 191 76 2
34.933468 77.152328 0.470828 89 191 76 2
115.403893 92.857178 -1.913182 89 191 76 2
-61.340446 -57.623268 -2.295396 89 191 76 2
-65.781204 -100.869202 -0.586617 89 191 76 2
-60.921883 -78.299583 -1.774767 89 191 76 2
115.631142 90.779457 -1.930818 89 191 76 2
-90.378410 76.656395 -2.079173 89 191 76 2
26.868042 -13.282783 5.945214 89 191 76 2
-38.197914 102.302834 -0.618176 89 191 76 2
-86.084908 -72.792587 0.262979 89 191 76 2
86.016907 -55.161308 3.185523 89 191 76 2
101.353363 -3.427527 1.770715 89 191 76 2
115.069481 -38.491402 -0.420869 89 191 76 2
-66.037148 -100.798782 -0.563727 89 191 76 2
43.345234 91.849319 0.745634 89 191 76 2
72.492935 -28.371038 5.177977 89 191 76 2
-38.991550 103.318062 -0.459138 89 191 76 2
-42.572544 104.732773 -0.431863 89 191 76 2
-39.879631 103.938744 -0.650301 89 191 76 2
114.980202 90.884506 -1.768339 89 191 76 2
-111.483109 -20.168222 2.370025 89 191 76 2
-26.367373 -35.530197 -2.193971 89 191 76 2
39.139915 -107.602386 4.878638 89 191 76 2
-32.756470 -34.442898 -2.321865 89 191 76 2
101.696350 -107.801224 0.848607 89 191 76 2
-38.461231 -91.076942 -2.067001 89 191 76 2
-60.724350 -78.238884 -1.823231 89 191 76 2
-38.683590 103.595856 -0.498230 89 191 76 2
35.550655 77.017464 0.526970 89 191 76 2
101.562080 -107.504890 0.851880 89 191 76 2
80.666077 81.745468 -1.290290 89 191 76 2
-61.834511 -58.150883 -2.317973 89 191 76 2
-52.390369 -29.665924 -1.814426 89 191 76 2
73.642517 -28.161247 5.469085 89 191 76 2
51.128288 51.326309 1.942762 89 191 76 2
73.269211 -27.792368 5.270411 89 191 76 2
114.176132 -38.221786 -0.400476 89 191 76 2
34.882225 77.188263 0.678796 89 191 76 2
114.190201 -38.593426 -0.383769 89 191 76 2
25.019634 78.117630 0.294660 89 191 76 2
80.966736 27.152004 2.252796 89 191 76 2
115.813728 -109.405571 0.288295 89 191 76 2
-111.617958 64.619896 -1.475018 89 191 76 2
80.481422 27.546661 2.218631 89 191 76 2
32.838509 -2.009744 6.363833 89 191 76 2
72.975822 -29.070208 5.151567 89 191 76 2
-97.938057 -108.758644 1.425210 89 191 76 2
-27.542297 -11.307488 -1.176901 89 191 76 2
115.104187 -109.563141 0.414474 89 191 76 2
-49.334129 -102.734970 -1.447153 89 191 76 2
-110.456360 63.957397 -1.393086 89 191 76 2
24.941256 78.488091 0.622533 89 191 76 2
-113.235390 -20.281918 2.454853 89 191 76 2
114.189537 49.511791 -3.197340 89 191 76 2
-25.271645 -64.973846 -3.533569 89 191 76 2
91.021202 -106.930748 2.431603 89 191 76 2
41.939167 92.489563 0.828262 89 191 76 2
-51.389912 -30.264198 -1.819469 89 191 76 2
-52.156368 -30.391628 -1.796842 89 191 76 2
17.207533 47.823872 0.902018 89 191 76 2
-32.098785 -36.274757 -2.348510 89 191 76 2
-27.847033 62.146599 -4.754693 89 191 76 2
-86.068558 -73.549515 0.410916 89 191 76 2
-29.185339 69.577347 -4.333548 89 191 76 2
-85.893471 -73.210854 0.473832 89 191 76 2
-66.629044 -72.164024 -1.809343 89 191 76 2
-110.613617 64.154419 -1.545338 89 191 76 2
-66.680832 21.994360 -5.033163 89 191 76 2
-90.183678 76.671898 -2.043459 89 191 76 2
36.657650 -39.968754 4.573914 89 191 76 2
43.081680 93.009392 0.726930 89 191 76 2
-68.111855 91.552818 -1.397658 89 191 76 2
24.545547 78.614326 0.412456 89 191 76 2
70.361076 -13.229835 5.314482 89 191 76 2
-42.306129 104.997131 -0.527291 89 191 76 2
-15.894191 -88.102364 -2.078748 89 191 76 2
-28.124695 -9.927863 -0.818015 89 191 76 2
72.459991 -28.319658 5.379181 89 191 76 2
-111.818008 -37.186535 2.388549 89 191 76 2
91.745049 -73.267471 1.311111 89 191 76 2
-69.220909 90.407280 -1.469362 89 191 76 2
101.137985 -2.824582 2.040998 89 191 76 2
80.267273 81.164391 -1.360890 89 191 76 2
80.589043 26.934669 2.170881 89 191 76 2
77.135757 82.277092 -0.609613 89 191 76 2
-52.194611 -29.431471 -1.792706 89 191 76 2
-72.604057 -65.211655 -1.047761 89 191 76 2
24.892553 78.897522 0.297318 89 191 76 2
-112.015541 -20.446545 2.387163 89 191 76 2
20.640947 59.384037 0.700138 89 191 76 2
104.916023 -8.138485 1.267755 89 191 76 2
-65.664253 -72.160942 -1.861275 89 191 76 2
-50.721104 -30.963697 -1.867800 89 191 76 2
90.590370 -106.832542 2.544677 89 191 76 2
100.919418 -2.911736 1.786948 89 191 76 2
119.621735 96.417000 -1.780528 89 191 76 2
73.407585 -27.616179 5.124124 89 191 76 2
81.082687 27.112825 2.008963 89 191 76 2
48.572906 -83.441246 4.475315 89 191 76 2
-20.724060 -34.852650 -1.719524 89 191 76 2
-73.282043 -65.950821 -0.072203 89 191 76 2
115.434288 92.795036 -1.967782 89 191 76 2
82.485489 36.748684 1.049497 89 191 76 2
35.379639 76.753738 0.469453 89 191 76 2
-116.238586 52.661137 -1.780327 89 191 76 2
-18.692921 -89.210587 -2.077878 89 191 76 2
-22.394373 -102.670418 -0.985223 89 191 76 2
52.812851 -102.020126 3.789343 89 191 76 2
80.727242 80.948967 -1.403168 89 191 76 2
-110.805077 -20.013058 2.273339 89 191 76 2
115.861641 91.029343 -1.596959 89 191 76 2
-52.187946 -29.474339 -1.801197 89 191 76 2
-22.885355 21.640293 -2.260379 89 191 76 2
59.477859 88.974075 0.400841 89 191 76 2
79.277962 81.911285 -1.317140 89 191 76 2
0.809261 107.112595 0.617534 89 191 76 2
-32.352459 -35.741474 -2.141253 89 191 76 2
70.417023 -13.920318 5.254270 89 191 76 2
-72.340706 -65.818924 -0.613976 89 191 76 2
-112.882759 -20.681444 2.401079 89 191 76 2
-49.082027 -102.886627 -1.400078 89 191 76 2
-22.424994 -101.669121 -1.125280 89 191 76 2
24.492163 78.472626 0.437553 89 191 76 2
35.222359 77.006897 0.663035 89 191 76 2
-27.409031 61.666103 -4.761648 89 191 76 2
24.569878 78.208183 0.410362 89 191 76 2
73.151421 -46.070637 4.234656 89 191 76 2
-50.858879 -30.743990 -1.892256 89 191 76 2
-52.667465 -31.033190 -1.865830 89 191 76 2
-50.631149 -29.980007 -1.871719 89 191 76 2
1.197075 106.164894 1.047443 89 191 76 2
-64.620323 -68.650597 -1.770728 89 191 76 2
-23.540379 -102.209946 -1.146766 89 191 76 2
-6.167709 -20.164967 1.169563 89 191 76 2
-24.058489 -101.682030 -1.225001 89 191 76 2
35.298351 77.362320 0.733130 89 191 76 2
70.191551 -15.160997 5.261087 89 191 76 2
114.847809 91.869453 -1.477218 89 191 76 2
-25.735088 -36.829453 -2.232347 89 191 76 2
90.808075 -106.751579 2.188166 89 191 76 2
35.640942 77.051582 0.386232 89 191 76 2
-60.463905 -78.299309 -1.833077 89 191 76 2
-109.653656 63.974319 -1.747547 89 191 76 2
0.871558 70.150772 -1.774046 89 191 76 2
-61.666164 -58.090229 -2.298631 89 191 76 2
-42.395947 104.839172 -0.558091 89 191 76 2
-98.552010 -108.525108 1.338713 89 191 76 2
-31.108410 69.768646 -4.486609 89 191 76 2
-85.445518 -73.773239 0.201683 89 191 76 2
11.430989 73.657555 -0.421309 89 191 76 2
-60.411335 -77.662483 -1.892084 89 191 76 2
-66.251389 -100.636963 -0.483983 89 191 76 2
17.315166 47.882835 1.159831 89 191 76 2
-32.658875 -36.188339 -2.316733 89 191 76 2
70.878036 -12.841859 5.310095 89 191 76 2
-60.793774 -77.839951 -1.694038 89 191 76 2
-89.846252 75.797226 -2.286649 89 191 76 2
115.511734 -110.330658 0.248985 89 191 76 2
15.114305 43.317760 1.202872 89 191 76 2
-27.074144 -36.979862 -2.340467 89 191 76 2
-31.728031 15.630816 -2.679726 89 191 76 2
-114.734566 80.642067 0.000090 89 191 76 2
-116.809235 50.927284 -1.720340 89 191 76 2
-38.435673 -90.659943 -2.046257 89 191 76 2
-115.643982 79.898743 -0.040474 89 191 76 2
100.978165 -2.879756 2.439214 89 191 76 2
115.389862 90.649574 -2.109063 89 191 76 2
115.456444 91.903862 -1.174370 89 191 76 2
-60.478722 -77.779228 -1.879795 89 191 76 2
-32.790054 -34.563965 -2.425475 89 191 76 2
-42.960106 104.504051 -0.631702 89 191 76 2
70.392349 -13.773597 5.346209 89 191 76 2
-89.127480 -109.797035 0.839450 89 191 76 2
-85.519661 -73.304718 0.239064 89 191 76 2
76.452026 82.975410 -0.522688 89 191 76 2
-32.595917 15.367717 -2.694291 89 191 76 2
-22.715843 -101.518288 -1.153694 89 191 76 2
-11.160684 104.665237 -0.148084 89 191 76 2
86.873665 -19.863686 3.176428 89 191 76 2
41.387573 -63.600903 3.302437 89 191 76 2
-31.374708 13.940548 -2.476427 89 191 76 2
-97.852737 -109.144577 1.476875 89 191 76 2
-60.452919 -78.149193 -1.867996 89 191 76 2
-27.219343 -11.416841 -1.053703 89 191 76 2
-20.063395 -34.224426 -1.583990 89 191 76 2
35.193672 77.434166 0.787246 89 191 76 2
-26.848629 -36.914825 -2.305055 89 191 76 2
-0.695658 49.579174 -1.328981 89 191 76 2
-65.992210 37.481335 -6.254611 89 191 76 2
-89.191521 -108.495628 0.880148 89 191 76 2
76.447289 82.655243 -0.265171 89 191 76 2
22.358419 85.881378 0.329065 89 191 76 2
-91.205551 -97.128174 0.954315 89 191 76 2
-66.169128 -100.485130 -0.194936 89 191 76 2
-89.715988 76.302971 -2.221505 89 191 76 2
108.954819 -68.475746 -0.144038 89 191 76 2
-17.977169 -35.954849 -1.525366 89 191 76 2
-31.998804 13.982889 -2.388237 89 191 76 2
-26.120640 -36.046951 -2.198574 89 191 76 2
-29.954439 -11.174037 -0.943638 89 191 76 2
-86.061768 -72.907478 0.235291 89 191 76 2
76.672470 82.919365 -0.048425 89 191 76 2
-115.521004 51.078125 -1.750278 89 191 76 2
2.953165 17.354076 2.317364 89 191 76 2
24.346907 78.444633 0.301837 89 191 76 2
85.271065 -55.695038 2.548205 89 191 76 2
91.192650 -73.466019 1.362549 89 191 76 2
-86.162140 -73.374130 0.353327 89 191 76 2
72.703667 -28.562271 5.288048 89 191 76 2
-27.586044 -11.337772 -1.186492 89 191 76 2
70.008774 62.126743 0.108765 89 191 76 2
114.607864 -37.928436 -0.417276 89 191 76 2
116.001602 92.698395 -1.879581 89 191 76 2
40.115849 -107.876717 4.373905 89 191 76 2
34.902538 77.063347 0.642759 89 191 76 2
-18.129484 -35.733105 -1.535258 89 191 76 2
-23.474270 -103.727676 -0.942920 89 191 76 2
-111.187538 -36.165691 2.487075 89 191 76 2
-64.297089 -68.468040 -1.831054 89 191 76 2
-38.002289 103.399582 -0.567048 89 191 76 2
77.143547 82.587563 -0.236269 89 191 76 2
76.826172 82.467316 -0.224527 89 191 76 2
-31.535664 -35.502377 -2.260863 89 191 76 2
77.028091 82.227844 -0.587200 89 191 76 2
-66.263115 -100.397781 -0.075045 89 191 76 2
-66.434448 -100.204239 -0.326474 89 191 76 2
-6.329061 -20.357065 1.020281 89 191 76 2
-110.206635 63.928223 -1.485264 89 191 76 2
-66.514091 -100.766632 -0.110746 89 191 76 2
-52.375294 -29.511824 -1.825737 89 191 76 2
-91.270813 -97.344055 1.216097 89 191 76 2
77.264084 82.846359 -0.526604 89 191 76 2
-64.471382 -68.437500 -1.807766 89 191 76 2
21.128138 58.411575 0.859859 89 191 76 2
85.908272 -55.125244 2.541312 89 191 76 2
-24.162031 -103.083107 -1.058299 89 191 76 2
-50.847935 -29.740555 -1.884564 89 191 76 2
119.593323 96.041397 -1.916460 89 191 76 2
90.724831 -107.099205 2.754102 89 191 76 2
35.268154 77.520485 0.404378 89 191 76 2
24.428078 78.743874 0.275808 89 191 76 2
35.037945 77.202133 0.763754 89 191 76 2
-61.326225 -57.997898 -2.383198 89 191 76 2
-85.818932 -72.965279 0.293597 89 191 76 2
114.240631 -38.020191 -0.411787 89 191 76 2
-65.665199 37.203999 -6.389756 89 191 76 2
76.762299 82.936050 -0.086385 89 191 76 2
-50.925896 -29.457693 -1.827560 89 191 76 2
114.364868 91.741653 -1.763629 89 191 76 2
50.782829 51.486767 1.973475 89 191 76 2
-109.948792 65.280846 -1.616335 89 191 76 2
50.856464 51.337730 2.150935 89 191 76 2
-9.153050 -14.435976 1.086137 89 191 76 2
80.604492 27.525974 2.137303 89 191 76 2
-68.967896 91.736008 -1.136210 89 191 76 2
-86.874039 -63.783253 0.099625 89 191 76 2
-66.493507 -100.499466 -0.185939 89 191 76 2
1.063380 70.303047 -1.669585 89 191 76 2
2.758453 17.722952 2.263245 89 191 76 2
-26.930510 -11.727397 -0.857589 89 191 76 2
36.097454 -40.991497 4.452475 89 191 76 2
-92.284103 -71.872559 0.415370 89 191 76 2
49.296459 -83.275620 3.905270 89 191 76 2
39.832073 -107.155945 4.862083 89 191 76 2
41.718441 -63.459293 3.370222 89 191 76 2
-70.226570 91.286049 -1.410294 89 191 76 2
-72.550713 -66.804741 -0.619308 89 191 76 2
-32.714310 14.042789 -2.654736 89 191 76 2
-5.941399 -20.290432 0.975429 89 191 76 2
17.098953 48.132072 1.033831 89 191 76 2
-5.383478 -20.332058 1.105105 89 191 76 2
-115.341324 50.557594 -1.894427 89 191 76 2
92.558182 -74.058823 1.302906 89 191 76 2
80.778656 26.994495 2.158274 89 191 76 2
115.988426 92.419716 -1.679985 89 191 76 2
115.113708 92.078110 -1.367953 89 191 76 2
-72.347633 -66.184303 -0.755016 89 191 76 2
-72.219315 72.315956 -4.486813 89 191 76 2
-99.151451 -108.431168 1.461363 89 191 76 2
-89.675354 76.383720 -1.914481 89 191 76 2
73.814163 -27.655502 5.111973 89 191 76 2
80.745003 27.310856 2.130996 89 191 76 2
3.149445 18.123018 2.250705 89 191 76 2
35.075325 76.887512 0.425157 89 191 76 2
-29.895052 -9.963666 -0.935032 89 191 76 2
-65.799934 -100.379105 -0.582430 89 191 76 2
-72.844345 -66.044907 -0.498443 89 191 76 2
114.369263 -38.314037 -0.432624 89 191 76 2
53.680828 -101.372581 3.829831 89 191 76 2
-72.739594 -66.421906 -1.098721 89 191 76 2
27.472549 -12.774284 6.108219 89 191 76 2
-39.206856 103.387489 -0.807937 89 191 76 2
-51.097595 -30.144913 -1.857160 89 191 76 2
-68.301140 91.576912 -1.418497 89 191 76 2
-26.813622 -12.046823 -1.061513 89 191 76 2
-72.083115 -65.668198 -1.160251 89 191 76 2
-110.210861 64.078308 -1.426316 89 191 76 2
-23.323053 -63.998978 -3.216723 89 191 76 2
38.748150 -107.216698 4.469100 89 191 76 2
85.771095 -55.539104 2.626108 89 191 76 2
-22.959778 -103.587257 -0.849654 89 191 76 2
73.841553 -27.438919 4.815548 89 191 76 2
-73.712044 -65.677979 -0.605054 89 191 76 2
37.406757 -39.375660 4.664282 89 191 76 2
-85.829697 -73.343102 0.366781 89 191 76 2
42.010380 -64.095222 3.413705 89 191 76 2
-31.166288 69.331932 -4.384505 89 191 76 2
-15.909885 -88.523972 -2.046654 89 191 76 2
34.936523 77.053528 0.392767 89 191 76 2
78.226387 64.306862 -0.802150 89 191 76 2
76.826500 83.347900 -0.562821 89 191 76 2
70.682144 -15.009762 5.256999 89 191 76 2
-40.095753 102.578957 -0.930801 89 191 76 2
-86.046196 -73.075661 0.287694 89 191 76 2
-5.468441 -19.966362 1.285515 89 191 76 2
35.030628 77.535652 0.397080 89 191 76 2
-22.513163 -104.134438 -0.833293 89 191 76 2
80.210052 26.985184 2.186889 89 191 76 2
53.100731 -70.005043 3.499014 89 191 76 2
-27.414764 -11.946849 -1.053285 89 191 76 2
-60.378407 -78.328056 -1.881484 89 191 76 2
-3.580177 -37.346649 -0.152966 89 191 76 2
100.475685 19.496073 1.110156 89 191 76 2
115.580299 90.850479 -1.842296 89 191 76 2
72.620415 -27.941525 5.170252 89 191 76 2
-108.196106 -45.809879 2.151595 89 191 76 2
115.643364 -108.790588 0.262819 89 191 76 2
2.356803 -88.567780 -0.415455 89 191 76 2
-38.122330 104.103813 -0.610756 89 191 76 2
-20.970448 -35.305912 -1.797751 89 191 76 2
53.725239 -102.428368 3.700038 89 191 76 2
-9.735689 105.745590 0.063460 89 191 76 2
-72.988838 -65.816452 -1.013475 89 191 76 2
115.105690 92.783028 -1.885550 89 191 76 2
-29.984104 69.922569 -4.473752 89 191 76 2
90.808220 -106.766830 2.472242 89 191 76 2
-26.525665 -11.209537 -1.006236 89 191 76 2
12.984276 11.818475 4.140809 89 191 76 2
-93.547348 -70.691483 0.546713 89 191 76 2
-51.006969 -89.512276 -1.858152 89 191 76 2
-66.429756 21.812855 -5.106027 89 191 76 2
53.626228 -102.924866 3.774770 89 191 76 2
-65.914932 -100.455452 -0.160564 89 191 76 2
-64.194321 -68.188774 -1.907136 89 191 76 2
-86.030540 -73.825272 0.282782 89 191 76 2
-113.417809 -20.118069 2.422001 89 191 76 2
105.826096 -7.309649 1.130212 89 191 76 2
3.460739 17.661604 2.366024 89 191 76 2
-85.461998 -73.708321 0.181595 89 191 76 2
-89.718636 75.879585 -2.251259 89 191 76 2
-60.838367 -78.157394 -1.565732 89 191 76 2
-37.941013 -91.015572 -1.748518 89 191 76 2
104.698761 -7.913050 1.264771 89 191 76 2
85.168732 -54.713623 2.512272 89 191 76 2
-27.141909 -11.819532 -0.968481 89 191 76 2
-10.284109 -14.283204 1.366757 89 191 76 2
-91.324326 -97.059708 1.011074 89 191 76 2
91.634834 -75.217384 1.369716 89 191 76 2
35.368702 77.413261 0.832062 89 191 76 2
2.564792 -87.558067 -0.184176 89 191 76 2
72.715660 -28.424608 5.408386 89 191 76 2
-69.615379 90.368774 -1.475529 89 191 76 2
119.993332 96.610077 -1.847188 89 191 76 2
69.644920 62.611908 0.070779 89 191 76 2
-85.876709 -73.233215 0.350034 89 191 76 2
-61.338078 -77.909767 -1.817394 89 191 76 2
-60.507111 -78.094696 -1.794003 89 191 76 2
-91.070610 -97.557030 1.500393 89 191 76 2
-52.284321 -30.905972 -1.832978 89 191 76 2
-109.976006 65.575859 -1.623918 89 191 76 2
80.031029 27.469864 2.122049 89 191 76 2
79.355888 64.201721 -1.016125 89 191 76 2
24.355545 78.427338 0.355511 89 191 76 2
86.256920 -55.508698 2.621859 89 191 76 2
-60.784340 -77.948738 -1.614125 89 191 76 2
-24.502798 -63.849323 -3.450769 89 191 76 2
-118.383446 -30.047556 3.146053 89 191 76 2
116.110931 91.823997 -1.583851 89 191 76 2
35.690792 76.865852 0.390952 89 191 76 2
-5.387802 -19.746870 1.273353 89 191 76 2
51.215794 51.354729 1.921779 89 191 76 2
86.139900 -54.168659 2.341793 89 191 76 2
59.688942 89.253380 0.936499 89 191 76 2
-38.188198 -90.873398 -1.979697 89 191 76 2
76.822258 82.820930 0.052095 89 191 76 2
46.035149 97.175690 0.969978 89 191 76 2
-33.229397 -36.070374 -2.277979 89 191 76 2
90.566483 -106.794075 2.274157 89 191 76 2
90.990013 -106.910049 2.280604 89 191 76 2
-29.253988 -9.738379 -0.905368 89 191 76 2
-117.570946 22.990158 0.525872 89 191 76 2
-60.542236 -78.432755 -1.834351 89 191 76 2
73.825226 -27.837622 4.956224 89 191 76 2
69.966553 -13.886880 5.393215 89 191 76 2
115.211815 -109.332085 0.320886 89 191 76 2
-9.417465 -14.365120 1.070463 89 191 76 2
-60.385036 -78.057388 -1.870454 89 191 76 2
-110.237900 -37.365875 2.302810 89 191 76 2
-52.964294 -79.245888 -2.885467 89 191 76 2
-28.625259 -12.073489 -0.891227 89 191 76 2
22.414534 58.261349 0.803646 89 191 76 2
76.839340 82.818848 -0.368014 89 191 76 2
-5.744162 -19.571140 1.009595 89 191 76 2
-52.462013 -30.425730 -1.799309 89 191 76 2
-25.159988 -102.788116 -1.138338 89 191 76 2
-9.929976 105.702805 0.123954 89 191 76 2
0.329908 70.401711 -1.868946 89 191 76 2
85.764839 -54.937283 3.320704 89 191 76 2
116.017723 -109.702469 0.263694 89 191 76 2
114.962875 -109.330154 0.366888 89 191 76 2
74.044243 -28.020859 4.906768 89 191 76 2
80.174309 27.049904 2.088869 89 191 76 2
81.008942 27.168819 2.066054 89 191 76 2
79.701904 81.313995 -1.212179 89 191 76 2
-110.539413 64.189072 -1.267581 89 191 76 2
80.188110 27.053936 2.292547 89 191 76 2
34.687153 77.266205 0.436843 89 191 76 2
73.399010 -28.893406 5.247470 89 191 76 2
-0.723016 69.368256 -1.940509 89 191 76 2
35.519661 76.908813 0.630405 89 191 76 2
108.522705 -69.809639 -0.038607 89 191 76 2
80.600365 27.663334 2.115937 89 191 76 2
14.833383 42.578690 1.191977 89 191 76 2
-37.799225 -91.092934 -1.747785 89 191 76 2
-27.548195 -11.870585 -1.200176 89 191 76 2
53.692932 95.732841 0.307000 89 191 76 2
34.668667 77.073921 0.349331 89 191 76 2
-88.970558 75.445488 -2.447562 89 191 76 2
-73.809860 -66.360527 -1.010366 89 191 76 2
69.923828 62.918297 0.109548 89 191 76 2
4.024436 -14.519586 2.701148 89 191 76 2
69.702667 62.556866 0.650749 89 191 76 2
-89.679802 75.995117 -2.257441 89 191 76 2
4.185224 -14.750318 2.773198 89 191 76 2
-91.558395 -97.544098 1.100884 89 191 76 2
116.472847 92.148438 -1.883029 89 191 76 2
90.770645 -107.238388 2.496933 89 191 76 2
-29.410284 69.666130 -4.419694 89 191 76 2
-65.928871 -100.363426 -0.478807 89 191 76 2
24.482597 78.049385 0.291265 89 191 76 2
3.283322 18.027338 2.328512 89 191 76 2
-27.190191 -11.990113 -1.101208 89 191 76 2
-25.116953 -64.750496 -3.433396 89 191 76 2
118.682938 74.821983 -2.994980 89 191 76 2
-2.168775 -38.440197 0.021900 89 191 76 2
-86.185608 -72.842110 0.262315 89 191 76 2
-85.644318 -73.806808 0.227843 89 191 76 2
-11.605623 -14.900070 0.919965 89 191 76 2
-66.213409 -72.697014 -1.652404 89 191 76 2
-60.372219 -78.114792 -1.862126 89 191 76 2
114.906555 -37.903156 -0.436292 89 191 76 2
-43.903778 104.394760 -0.535301 89 191 76 2
76.729836 83.362648 -0.583248 89 191 76 2
69.657402 62.427532 0.308738 89 191 76 2
115.583511 -108.910667 0.307392 89 191 76 2
114.373276 -38.683693 -0.436899 89 191 76 2
40.141468 -106.095116 4.366986 89 191 76 2
108.942276 -70.265579 -0.190119 89 191 76 2
35.399406 77.403763 0.843515 89 191 76 2
92.602951 -73.539001 1.240512 89 191 76 2
76.803223 82.428856 -0.257395 89 191 76 2
-72.259209 -65.794983 -0.938238 89 191 76 2
79.478851 80.711784 -1.302891 89 191 76 2
53.181938 -102.418015 4.033956 89 191 76 2
48.851463 -83.610359 4.609728 89 191 76 2
119.222710 96.386589 -1.803577 89 191 76 2
34.858742 77.528442 0.365829 89 191 76 2
-28.441607 -9.924880 -0.837797 89 191 76 2
80.862694 26.938721 2.114744 89 191 76 2
-88.742989 77.198547 -2.184118 89 191 76 2
80.794624 26.919260 2.193048 89 191 76 2
-72.284180 -66.783409 -1.012048 89 191 76 2
-23.082529 -103.666451 -0.993933 89 191 76 2
-43.106918 105.161568 -0.491390 89 191 76 2
73.891434 -27.779497 5.156902 89 191 76 2
35.475231 77.658714 0.510493 89 191 76 2
-51.787773 -30.558001 -1.811588 89 191 76 2
101.148506 -2.867015 2.334942 89 191 76 2
-52.403225 -30.129972 -1.809728 89 191 76 2
114.696800 -37.954941 -0.349597 89 191 76 2
72.437325 -27.633463 5.224924 89 191 76 2
-37.362747 104.103012 -0.647465 89 191 76 2
100.129295 19.273602 0.816260 89 191 76 2
35.021053 76.919975 0.547186 89 191 76 2
-115.987068 50.701862 -1.631894 89 191 76 2
34.846992 77.681427 0.397844 89 191 76 2
-33.135021 -34.031372 -2.267549 89 191 76 2
-22.065472 -102.294456 -0.987949 89 191 76 2
76.315811 82.561928 -0.526142 89 191 76 2
43.412632 92.384041 0.813932 89 191 76 2
54.446037 95.844841 0.367780 89 191 76 2
2.950317 -88.259850 -0.218252 89 191 76 2
-99.200417 -107.655411 1.387042 89 191 76 2
-86.982056 -109.128853 0.741964 89 191 76 2
14.813046 43.176952 1.284126 89 191 76 2
-66.276611 -100.646255 -0.514809 89 191 76 2
105.430351 -7.807620 1.755187 89 191 76 2
3.469954 17.588198 2.391320 89 191 76 2
-88.733917 -109.089806 1.044056 89 191 76 2
115.094360 92.103188 -2.009501 89 191 76 2
1.330842 105.661842 0.775682 89 191 76 2
80.990051 27.098186 2.205398 89 191 76 2
-99.331589 -107.903915 1.439807 89 191 76 2
27.298349 -13.189294 6.104786 89 191 76 2
-73.897598 -66.444794 -0.994963 89 191 76 2
86.416534 -55.050026 2.435579 89 191 76 2
101.275803 -3.107794 2.235762 89 191 76 2
40.343826 -106.824844 4.353186 89 191 76 2
53.641544 -102.461685 3.735582 89 191 76 2
24.757124 78.150681 0.294197 89 191 76 2
-72.596741 -65.194023 -1.087198 89 191 76 2
-72.385841 -65.429245 -0.851195 89 191 76 2
-65.430496 -72.297417 -2.196366 89 191 76 2
2.627196 -88.387634 -0.281027 89 191 76 2
80.141624 80.917526 -1.391554 89 191 76 2
-66.769348 38.019970 -6.416296 89 191 76 2
1.317559 105.884361 0.645094 89 191 76 2
74.097160 -28.473074 5.080107 89 191 76 2
80.331520 27.402126 2.273759 89 191 76 2
45.858929 96.295349 0.930488 89 191 76 2
-66.601341 -100.758575 -0.728208 89 191 76 2
-34.032730 -35.169823 -2.419060 89 191 76 2
-86.699333 -64.274704 -0.138497 89 191 76 2
13.132810 11.903151 4.374651 89 191 76 2
55.267403 -4.368842 6.840064 89 191 76 2
14.165476 87.298157 -0.181125 89 191 76 2
-116.849777 50.644833 -1.773356 89 191 76 2
20.914370 59.230408 0.849166 89 191 76 2
73.720428 -27.657152 5.229869 89 191 76 2
108.843834 -70.851418 0.052084 89 191 76 2
109.128242 -70.547165 -0.195816 89 191 76 2
41.515308 -64.837410 3.276561 89 191 76 2
-24.874964 -92.133888 -2.221677 89 191 76 2
-16.689882 -88.996956 -2.053932 89 191 76 2
-61.304070 -78.316185 -1.826158 89 191 76 2
41.263844 -63.653133 3.502890 89 191 76 2
26.890659 -12.749331 5.996210 89 191 76 2
-23.883068 -102.915573 -0.853411 89 191 76 2
-69.410683 90.880524 -1.214499 89 191 76 2
-50.197056 -102.045753 -1.490608 89 191 76 2
12.006907 73.968155 -0.474161 89 191 76 2
-60.694736 -77.568672 -1.887145 89 191 76 2
-66.374397 37.735252 -6.430723 89 191 76 2
35.088787 77.299217 0.734725 89 191 76 2
3.143517 17.567072 2.412067 89 191 76 2
-29.789255 -11.592081 -0.932838 89 191 76 2
-87.020645 -109.239624 0.787744 89 191 76 2
116.484749 91.896667 -1.983668 89 191 76 2
-43.551083 104.574440 -0.430829 89 191 76 2
-43.538475 103.992325 -0.668620 89 191 76 2
0.744499 68.755325 -1.725548 89 191 76 2
-24.853903 -65.416771 -3.537391 89 191 76 2
79.981392 27.262749 2.119508 89 191 76 2
76.344910 82.975014 -0.560717 89 191 76 2
111.838623 49.653049 -2.683159 89 191 76 2
-10.906049 -15.446926 1.082819 89 191 76 2
80.310638 81.297844 -1.248049 89 191 76 2
-86.439560 -73.034866 0.281850 89 191 76 2
-51.274517 -30.754820 -1.864396 89 191 76 2
79.564415 81.709755 -1.285713 89 191 76 2
-27.203627 -11.913657 -0.981816 89 191 76 2
-43.595715 104.862419 -0.375919 89 191 76 2
-99.010353 -109.628906 1.633842 89 191 76 2
-111.658569 -21.206228 2.324509 89 191 76 2
50.893631 51.530121 1.931814 89 191 76 2
-108.935356 -45.794975 1.984191 89 191 76 2
-31.111391 14.287657 -2.409744 89 191 76 2
-22.458355 -101.997734 -1.050418 89 191 76 2
-91.093155 -97.411270 1.149082 89 191 76 2
34.732174 77.017776 0.332216 89 191 76 2
116.007462 92.092308 -1.118178 89 191 76 2
13.499537 11.687187 4.276075 89 191 76 2
39.543911 -107.602333 4.141467 89 191 76 2
114.216667 -38.165485 -0.349688 89 191 76 2
-98.339073 -108.928909 1.477115 89 191 76 2
-43.126743 105.115959 -0.303043 89 191 76 2
-65.971863 -100.592125 -0.660330 89 191 76 2
116.095634 91.815941 -1.345384 89 191 76 2
-38.989548 103.192940 -0.614071 89 191 76 2
-64.908356 -68.875786 -2.033300 89 191 76 2
86.054466 -55.503952 2.453048 89 191 76 2
-38.376102 -91.237282 -2.078874 89 191 76 2
24.564461 78.098610 0.283684 89 191 76 2
38.849342 -105.775871 4.187081 89 191 76 2
-93.625526 -72.247246 0.476471 89 191 76 2
-27.609818 62.069717 -4.759918 89 191 76 2
80.724564 27.200785 2.209688 89 191 76 2
115.714584 90.958504 -1.785347 89 191 76 2
115.934433 92.091904 -1.504801 89 191 76 2
-21.520853 -104.189430 -0.838556 89 191 76 2
38.814411 -107.816643 4.598518 89 191 76 2
-31.451330 13.705878 -2.476547 89 191 76 2
-27.170115 -36.212254 -2.281543 89 191 76 2
80.229362 27.645338 2.164760 89 191 76 2
-68.752075 90.867653 -1.523388 89 191 76 2
73.965248 -27.856760 5.176362 89 191 76 2
24.251251 78.422485 0.287144 89 191 76 2
-61.321667 -77.959503 -1.830746 89 191 76 2
81.452980 37.017757 1.151320 89 191 76 2
115.180077 92.538849 -1.870681 89 191 76 2
-16.377028 -89.668716 -2.000392 89 191 76 2
-87.362289 -109.016235 0.806588 89 191 76 2
-32.555065 15.375271 -2.636649 89 191 76 2
35.322334 77.661720 0.464158 89 191 76 2
13.228769 12.288126 4.042493 89 191 76 2
-85.707901 -73.645302 0.294000 89 191 76 2
-110.699623 65.111443 -1.225491 89 191 76 2
-66.304062 -100.419731 -0.561621 89 191 76 2
100.990654 -2.599306 2.072495 89 191 76 2
73.692017 -28.196806 5.041630 89 191 76 2
69.865219 62.207676 0.247829 89 191 76 2
35.341469 76.639702 0.379995 89 191 76 2
-90.199608 77.137962 -2.060906 89 191 76 2
80.241356 27.069880 2.176613 89 191 76 2
39.717136 -106.544815 4.835610 89 191 76 2
69.500763 -12.324566 5.403802 89 191 76 2
35.035252 77.628685 0.358309 89 191 76 2
73.184753 -28.501493 5.352834 89 191 76 2
17.938248 47.788193 1.290248 89 191 76 2
80.424774 82.582619 -1.293982 89 191 76 2
-37.605392 -90.647202 -2.126285 89 191 76 2
-112.061256 -20.531376 2.335743 89 191 76 2
35.792446 77.072968 0.440526 89 191 76 2
-51.691395 -30.182140 -1.802284 89 191 76 2
-90.808517 -97.274788 0.935523 89 191 76 2
34.915226 77.208328 0.748244 89 191 76 2
-23.358795 20.735594 -2.332825 89 191 76 2
73.535950 -29.139357 5.052127 89 191 76 2
101.227417 -2.514765 1.609091 89 191 76 2
-90.491531 76.215294 -2.209103 89 191 76 2
34.909206 77.351410 0.693231 89 191 76 2
13.577115 12.541721 4.011607 89 191 76 2
-98.930763 -109.079132 1.587698 89 191 76 2
39.752441 -107.838112 4.608335 89 191 76 2
-72.121918 -65.961601 -0.673360 89 191 76 2
-88.977104 76.750381 -1.778643 89 191 76 2
-98.305885 -108.552422 1.389002 89 191 76 2
101.184258 -2.647891 2.227860 89 191 76 2
-92.918205 -70.383453 0.413130 89 191 76 2
24.657492 78.634445 0.414335 89 191 76 2
-60.977757 -77.689507 -1.842231 89 191 76 2
17.288252 -16.776701 5.234121 89 191 76 2
-117.752457 -31.360662 3.033703 89 191 76 2
-6.015736 -20.166700 1.276602 89 191 76 2
14.530188 42.289295 1.185674 89 191 76 2
-2.580155 97.316002 -0.303097 89 191 76 2
76.350899 82.836960 -0.444295 89 191 76 2
-42.946873 105.145569 -0.484897 89 191 76 2
-91.253426 -97.756294 1.148004 89 191 76 2
-66.370316 -100.805092 -0.158383 89 191 76 2
-73.323891 -66.554596 -1.036207 89 191 76 2
17.378851 -17.157452 4.651764 89 191 76 2
80.882980 27.128046 2.214652 89 191 76 2
115.499908 -108.729218 0.274693 89 191 76 2
-37.089508 102.579018 -0.851866 89 191 76 2
76.381767 82.743050 -0.365097 89 191 76 2
115.340324 92.366539 -1.683069 89 191 76 2
90.691269 -107.357574 2.788338 89 191 76 2
-86.405579 -73.047676 0.256147 89 191 76 2
13.793573 12.261295 4.280247 89 191 76 2
-9.603366 105.427864 -0.081455 89 191 76 2
69.109352 -13.164556 5.430296 89 191 76 2
41.942726 -64.607719 3.445366 89 191 76 2
35.092541 76.799400 0.440963 89 191 76 2
-65.891113 -72.945854 -1.714839 89 191 76 2
116.382607 92.334213 -1.920048 89 191 76 2
73.307327 -27.525177 5.002956 89 191 76 2
48.977985 -83.719299 4.409831 89 191 76 2
-9.663431 105.485497 0.094174 89 191 76 2
-37.939220 -91.123131 -2.008733 89 191 76 2
-98.912323 -108.283348 1.428222 89 191 76 2
-110.713753 65.816162 -1.582735 89 191 76 2
-15.475184 -87.904793 -2.042053 89 191 76 2
-19.353073 -34.683556 -1.512595 89 191 76 2
101.454384 -108.433296 1.643294 89 191 76 2
77.184525 82.307655 -0.613043 89 191 76 2
13.707527 11.723871 4.176869 89 191 76 2
90.717255 -107.116058 2.557912 89 191 76 2
115.649521 90.679176 -1.982976 89 191 76 2
80.458237 81.035034 -1.333466 89 191 76 2
-88.703316 -109.609375 1.022053 89 191 76 2
-52.868969 -30.999849 -1.862257 89 191 76 2
-24.091024 -93.191101 -1.993512 89 191 76 2
101.568848 -2.862677 1.644136 89 191 76 2
35.574245 76.779442 0.413323 89 191 76 2
35.602173 77.158508 0.529415 89 191 76 2
12.250357 75.078308 -0.328206 89 191 76 2
-86.048454 -73.835655 0.274707 89 191 76 2
86.567848 -54.942410 2.558312 89 191 76 2
34.812996 77.122757 0.362083 89 191 76 2
-72.567421 -65.110214 -0.890777 89 191 76 2
-64.030006 -68.818062 -2.121315 89 191 76 2
-23.074518 -65.114189 -3.317239 89 191 76 2
79.695038 81.078217 -1.324776 89 191 76 2
50.939587 51.164810 1.964746 89 191 76 2
-48.772282 -101.422836 -1.518923 89 191 76 2
-6.222237 39.904037 -1.458811 89 191 76 2
22.833395 76.256783 -0.035800 89 191 76 2
-51.735367 -29.294794 -1.793673 89 191 76 2
35.226837 77.380966 0.610885 89 191 76 2
76.947044 83.247620 -0.574628 89 191 76 2
35.287388 77.250465 0.736782 89 191 76 2
-60.862453 -78.339226 -1.756556 89 191 76 2
-70.035713 90.890457 -1.286892 89 191 76 2
-110.463837 63.452610 -1.728580 89 191 76 2
-51.935284 -30.189596 -1.797532 89 191 76 2
-110.548576 65.024933 -1.329211 89 191 76 2
-25.916227 -35.757710 -2.175601 89 191 76 2
39.616898 -106.606346 4.187244 89 191 76 2
80.355423 35.799442 1.349485 89 191 76 2
100.708160 -3.174048 1.740004 89 191 76 2
101.353462 -2.659158 2.290519 89 191 76 2
78.521042 64.507980 -0.782269 89 191 76 2
-72.946144 71.317406 -4.571712 89 191 76 2
120.011459 96.487877 -1.876031 89 191 76 2
39.153904 -106.721107 4.125304 89 191 76 2
-32.714108 15.258911 -2.720557 89 191 76 2
54.052296 -102.038277 3.825071 89 191 76 2
-66.506416 38.267353 -6.363682 89 191 76 2
14.379688 87.144279 -0.133929 89 191 76 2
90.425896 -107.107300 2.060869 89 191 76 2
-10.001306 104.710281 -0.104285 89 191 76 2
116.525253 91.931671 -1.799675 89 191 76 2
73.064636 -28.857862 5.219676 89 191 76 2
-110.196312 65.320091 -1.518402 89 191 76 2
105.352921 -7.360955 1.240156 89 191 76 2
-23.123318 -101.864731 -1.052589 89 191 76 2
-110.364365 64.009407 -1.392325 89 191 76 2
18.255772 -16.987942 5.123563 89 191 76 2
-38.368099 -90.577797 -2.138316 89 191 76 2
80.185272 27.205006 2.139178 89 191 76 2
-99.306206 -109.139725 1.574751 89 191 76 2
-43.445805 104.202324 -0.691947 89 191 76 2
100.148224 19.082317 0.869800 89 191 76 2
73.777832 -27.433355 4.961532 89 191 76 2
50.976871 51.256142 2.047480 89 191 76 2
-23.226954 -103.825645 -0.941785 89 191 76 2
45.911743 97.632645 1.003885 89 191 76 2
-52.104595 -30.982683 -1.834257 89 191 76 2
80.397301 27.361002 2.318154 89 191 76 2
-61.016220 -78.314934 -1.818745 89 191 76 2
-87.811241 -63.966576 0.038460 89 191 76 2
34.982502 77.661736 0.437472 89 191 76 2
86.535454 -54.521225 2.433419 89 191 76 2
-20.621042 -34.503597 -1.658293 89 191 76 2
12.454883 40.679630 1.363338 89 191 76 2
-89.750481 75.869148 -2.129433 89 191 76 2
-73.484184 -66.603226 -0.656359 89 191 76 2
4.423833 -15.544681 2.800066 89 191 76 2
-13.426879 -92.140396 -1.561443 89 191 76 2
-9.697304 104.728737 0.028137 89 191 76 2
45.231075 97.519318 0.961374 89 191 76 2
18.078876 -17.069197 5.216417 89 191 76 2
105.255402 -7.748814 1.752387 89 191 76 2
78.196182 63.856178 -0.664505 89 191 76 2
-28.449755 -11.102239 -0.796570 89 191 76 2
-113.397629 -20.427860 2.479847 89 191 76 2
114.538162 -38.337204 -0.454837 89 191 76 2
-18.105078 -35.851608 -1.576581 89 191 76 2
-51.724773 -30.802578 -1.828167 89 191 76 2
-87.256615 -108.753975 0.821693 89 191 76 2
55.289959 104.935699 1.125737 89 191 76 2
80.058968 36.210339 1.202927 89 191 76 2
105.900139 -7.385830 1.133657 89 191 76 2
1.707659 105.605087 0.524874 89 191 76 2
-110.546494 65.382408 -1.379686 89 191 76 2
-38.234215 -90.963425 -1.928197 89 191 76 2
35.105297 76.851723 0.399217 89 191 76 2
20.553169 58.963760 0.646695 89 191 76 2
-29.142090 -10.624323 -0.785116 89 191 76 2
43.020470 92.031433 1.011993 89 191 76 2
34.762337 77.228218 0.530740 89 191 76 2
-87.706528 -109.851997 0.930863 89 191 76 2
35.453133 77.678337 0.524997 89 191 76 2
-111.543892 -19.717411 2.330151 89 191 76 2
-28.363461 -10.136816 -0.848859 89 191 76 2
76.982712 82.249962 -0.638471 89 191 76 2
114.410713 -38.722149 -0.422120 89 191 76 2
-15.366268 -88.071663 -2.018618 89 191 76 2
70.000237 62.966824 0.257291 89 191 76 2
-86.241676 -72.798988 0.218182 89 191 76 2
-60.971642 -77.486511 -1.894671 89 191 76 2
-73.940659 -65.569252 -1.001370 89 191 76 2
17.896574 48.090740 0.921777 89 191 76 2
-54.708920 -58.563774 -2.424564 89 191 76 2
-2.455703 -38.051929 0.237267 89 191 76 2
-60.908173 -77.732979 -1.795282 89 191 76 2
116.479233 92.383514 -2.108393 89 191 76 2
-28.771315 -11.377295 -0.823121 89 191 76 2
-117.423401 -30.419067 3.192289 89 191 76 2
-108.474434 51.913486 -2.563124 89 191 76 2
-31.130983 14.959637 -2.445936 89 191 76 2
-24.098070 -102.392693 -1.089247 89 191 76 2
90.450058 -107.146187 2.800126 89 191 76 2
85.868439 -55.390244 3.021526 89 191 76 2
1.306595 107.006760 0.801110 89 191 76 2
81.193611 27.321543 1.938440 89 191 76 2
116.303535 91.636314 -1.856900 89 191 76 2
35.147926 76.936867 0.438495 89 191 76 2
-23.258347 -102.269020 -1.093663 89 191 76 2
51.067711 51.423615 2.157317 89 191 76 2
-42.374886 104.300842 -0.574584 89 191 76 2
-0.045818 70.472763 -1.880887 89 191 76 2
12.621558 11.969812 3.938770 89 191 76 2
-61.015274 -77.808960 -1.726447 89 191 76 2
-32.552944 14.016565 -2.536593 89 191 76 2
35.353531 77.318611 0.420752 89 191 76 2
-100.254845 -109.787498 1.582282 89 191 76 2
55.151672 106.133667 1.311688 89 191 76 2
115.354599 -38.450413 -0.483535 89 191 76 2
-66.110268 -100.727402 -0.477881 89 191 76 2
39.074005 -107.966553 4.545875 89 191 76 2
114.746994 92.691322 -1.718951 89 191 76 2
101.306252 -2.656017 1.970699 89 191 76 2
-21.228691 -35.109756 -1.731237 89 191 76 2
80.932793 27.514303 2.051689 89 191 76 2
-64.789528 -68.138168 -1.970955 89 191 76 2
-91.453003 -97.439903 1.132114 89 191 76 2
-22.767551 -102.241798 -1.124370 89 191 76 2
90.447044 -106.802155 1.857925 89 191 76 2
-51.917942 -29.265062 -1.792717 89 191 76 2
-111.129982 64.409050 -1.326983 89 191 76 2
0.235472 69.259972 -1.877248 89 191 76 2
114.906197 92.829315 -2.078196 89 191 76 2
80.703644 27.272224 2.046717 89 191 76 2
-110.505058 65.275291 -1.428174 89 191 76 2
114.468895 -37.860344 -0.378599 89 191 76 2
115.386955 91.284599 -1.380393 89 191 76 2
24.384533 78.233368 0.282129 89 191 76 2
-111.395309 65.184181 -1.458912 89 191 76 2
50.876846 51.217674 2.030328 89 191 76 2
-5.431117 -20.247650 1.061239 89 191 76 2
114.673149 -108.973633 0.344974 89 191 76 2
41.436836 -64.129936 3.715061 89 191 76 2
